ply
format ascii 1.0
element vertex 735
property float x
property float y
property float z
property float nx
property float ny
property float nz
property uchar diffuse_red
property uchar diffuse_green
property uchar diffuse_blue
end_header
1.56141 5.88182 12.3436 -0.253968 -0.967026 0.0189867 193 206 201
1.65246 5.72601 12.039 -0.80985 -0.582321 0.0710309 190 204 201
4.83765 6.33296 12.4039 0.0710538 -0.201486 -0.976911 89 95 102
5.76647 6.25656 11.9467 -0.159874 -0.986962 -0.01859 192 186 172
0.88646 6.31722 13.4597 -0.830758 -0.556418 -0.0154891 206 214 208
1.44765 5.98547 12.5556 -0.959559 0.151855 -0.237037 190 201 197
4.46816 6.32079 12.3648 0.0193961 -0.966101 -0.257435 76 86 91
5.18654 6.35782 12.2649 -0.146212 -0.935374 -0.322021 111 121 121
5.6553 6.31501 12.0269 -0.0673258 -0.919976 -0.386151 211 206 193
0.332164 6.38101 13.644 -0.773608 -0.63365 0.00431526 175 169 157
1.29491 6.11893 12.8389 -0.938789 0.064867 -0.338331 196 208 204
1.76964 5.78436 11.9366 -0.950115 0.207398 -0.232953 189 203 201
2.75456 5.7627 11.5893 0.415454 -0.12339 -0.901206 106 117 118
4.71252 6.34106 12.2953 -0.599148 -0.799101 -0.049602 72 77 81
0.129958 6.36592 13.6218 -0.701617 -0.71247 0.0109663 188 187 178
1.58456 5.9717 12.2857 -0.85024 0.349373 -0.393738 203 214 210
3.71327 6.17489 12.1721 -0.0378557 0.0610722 -0.997415 42 51 57
5.46844 6.34126 11.9874 -0.223104 -0.880889 -0.417443 211 208 197
0.130317 6.29387 13.3373 -0.487553 -0.872609 0.0290869 190 189 181
1.13066 6.29631 13.0681 -0.540325 -0.710372 -0.451022 213 221 213
1.83824 5.77499 11.7328 -0.950416 0.212317 -0.227223 193 208 204
2.57465 5.72751 11.4219 0.284818 -0.112713 -0.951932 95 106 107
4.57405 6.37197 12.2459 0.276597 -0.858354 -0.432113 69 79 83
4.62991 6.36477 12.2205 -0.439292 -0.817089 -0.373348 81 91 95
5.24341 6.38494 12.0354 0.0603779 -0.879995 -0.471131 217 218 208
5.71924 6.39142 11.8806 -0.209491 -0.750209 -0.627136 117 105 92
1.1258 6.33355 13.0915 -0.617155 -0.753233 -0.227509 208 219 212
1.64952 5.98054 12.1882 -0.961531 0.161422 -0.222265 192 202 199
1.82851 5.80075 11.7746 -0.976161 0.132386 -0.172001 193 207 202
2.15856 5.63136 11.2996 -0.647167 0.0900927 -0.757006 193 205 202
3.46075 6.13729 11.9883 0.01212 0.0541657 -0.998459 23 28 34
4.52728 6.38582 12.179 0.331526 -0.453297 -0.827413 90 102 106
5.07802 6.36206 11.9386 -0.177013 -0.983457 -0.0384605 188 191 185
5.65162 6.38163 11.8224 -0.136432 -0.945631 -0.295245 99 88 76
5.83594 6.42246 11.8252 0.0317506 -0.753575 -0.656594 115 105 95
0.804118 6.34651 13.0806 -0.939269 -0.33427 -0.0776995 216 216 208
0.847118 6.33466 13.0551 -0.492342 -0.868246 0.0612186 216 217 209
2.19693 5.6509 11.2591 -0.525219 0.104054 -0.844582 145 156 154
3.68481 6.29959 12.1551 0.0485493 -0.162731 -0.985475 80 92 99
4.59427 6.40769 12.1286 0.0494469 -0.845616 -0.531496 97 106 109
0.332643 6.44136 13.3839 -0.0199624 -0.998105 -0.0582088 193 194 185
0.689933 6.37694 13.1014 -0.777586 -0.6275 0.0400459 217 219 210
1.06674 6.25589 12.8042 -0.849783 -0.525354 0.0432628 214 218 210
1.65614 6.0597 12.1978 -0.949355 0.180692 -0.25705 65 73 71
2.74264 5.92882 11.5835 0.102654 0.0201737 -0.994513 105 116 117
4.42015 6.39926 12.0513 0.0721855 -0.934279 -0.349158 84 94 97
0.271153 6.44093 13.3438 -0.638783 -0.768438 0.038202 194 195 188
0.756163 6.36957 13.042 -0.3627 -0.930969 0.0417786 220 220 212
0.802687 6.38197 13.0358 -0.915079 -0.402911 -0.0171151 216 217 210
0.826816 6.34643 12.9662 -0.897476 -0.441063 -0.000440687 213 214 207
1.11537 6.37831 12.9584 -0.817954 -0.572634 0.0551475 217 220 212
1.43994 6.29391 12.6432 -0.891132 0.258553 -0.372873 196 208 205
1.77043 6.01873 11.9701 -0.779049 0.428713 -0.457479 184 194 191
2.91059 6.04977 11.7088 0.434315 -0.426276 -0.79351 80 87 90
4.76841 6.42035 11.9224 0.00651168 -0.991978 -0.12624 108 115 115
0.81305 6.39618 12.9858 -0.942012 -0.332976 -0.041725 216 217 210
1.10915 6.43957 13.0005 -0.853882 -0.518361 -0.0467647 216 218 209
1.12648 6.42763 12.9733 -0.819155 -0.570822 0.0560962 218 220 210
4.35463 6.4153 11.9345 0.0670384 -0.940096 -0.334253 95 105 107
4.84461 6.40421 11.7992 -0.197798 -0.977944 -0.0670861 200 202 196
5.07393 6.40215 11.7251 0.00637591 -0.977206 -0.212198 210 205 194
0.410943 6.45528 13.1662 0.248463 -0.949802 -0.190112 211 211 202
0.75713 6.40099 12.952 -0.130538 -0.991375 -0.0116478 220 221 214
1.15995 6.40154 12.8161 -0.35212 -0.749133 -0.561081 224 226 216
1.30441 6.36555 12.7074 -0.781106 -0.622472 0.0490084 213 219 211
1.42652 6.34586 12.6408 -0.953123 0.158431 -0.257792 197 209 205
2.56482 5.965 11.5115 -0.0394892 0.12591 -0.991255 108 119 121
3.37809 6.30273 11.9714 0.162246 -0.077336 -0.983715 81 94 100
3.98163 6.41352 11.9574 0.306834 -0.856259 -0.415541 85 96 101
1.21886 6.39357 12.6864 -0.74924 -0.656516 0.0873261 219 221 210
1.57189 6.29658 12.3825 -0.827648 -0.553066 0.0954838 194 204 200
2.6103 6.007 11.5088 0.153322 -0.196471 -0.968448 96 107 108
3.65426 6.41466 12.008 0.228532 -0.72246 -0.652552 67 78 83
0.355185 6.49703 13.0709 0.239163 -0.951644 -0.192809 208 209 200
1.16833 6.29949 12.4854 -0.777165 -0.623564 0.0847467 220 221 211
1.5597 6.33939 12.3823 -0.962673 -0.270656 0.00255167 196 205 200
2.56652 6.0313 11.5113 -0.296994 0.0390999 -0.954078 103 114 115
0.489118 6.42396 12.8139 -0.513685 -0.855358 0.0670124 197 199 190
1.92399 6.10253 11.7716 -0.97024 -0.241681 -0.0149963 196 208 204
2.29406 5.8769 11.1992 0.1932 -0.0328865 -0.980608 120 130 130
3.49094 6.42906 11.9272 0.00811498 -0.952005 -0.305975 75 87 91
3.7464 6.3755 11.7374 -0.134762 -0.76565 -0.628982 74 85 91
3.87957 6.43709 11.8313 -0.138232 -0.990124 -0.0233908 69 80 83
5.06483 6.43264 11.4862 0.0148476 -0.989719 -0.142256 97 86 76
1.42076 6.4365 12.513 -0.413432 -0.907671 0.0721563 190 195 191
1.83922 6.00419 11.5198 -0.860495 -0.493513 0.126463 195 207 203
3.71938 6.38704 11.7235 -0.239958 -0.939981 -0.242602 76 87 93
4.66779 6.39864 11.4606 -0.0707596 -0.993052 -0.0940252 175 173 164
4.93969 6.31569 11.192 -0.800437 -0.534041 0.272215 77 68 60
0.809767 6.4727 12.7138 -0.763095 -0.645062 0.0397567 213 215 207
1.79118 6.26152 11.982 -0.827041 -0.548683 0.122273 68 80 79
1.9247 6.1983 11.8137 -0.903518 0.292885 -0.312848 196 208 204
2.03903 5.97514 11.3227 -0.118302 0.259973 -0.958342 202 214 210
4.96793 6.45888 11.4006 0.199127 -0.787965 -0.582631 105 97 85
4.94094 6.33336 11.1552 -0.402347 -0.838065 -0.368463 80 71 64
0.941338 6.45743 12.5229 -0.774225 -0.628064 0.0781684 213 214 206
1.75683 6.30375 11.966 -0.897602 -0.431304 0.0910367 138 151 150
4.90676 6.35879 11.1583 -0.525833 -0.828367 -0.193153 111 102 95
0.617247 6.48978 12.6174 0.592475 -0.431454 -0.68031 209 210 202
1.62241 6.44732 12.2697 -0.954743 0.165968 -0.246821 166 169 164
2.89676 6.36108 11.6769 0.331564 -0.164872 -0.928915 83 94 99
4.93248 6.37701 11.0926 -0.952837 -0.258766 -0.158561 77 68 60
1.52061 6.5043 12.2915 -0.448626 -0.847216 -0.284534 212 214 209
1.7441 6.44203 12.1102 -0.360829 0.176618 -0.915756 110 117 113
2.5007 6.22425 11.4903 -0.329105 -0.0907684 -0.939921 111 122 123
3.85815 6.46618 11.5022 0.179568 -0.910014 -0.373671 99 109 109
4.64356 6.41761 11.1957 0.0697243 -0.973991 -0.215594 113 104 91
4.91302 6.44202 11.1465 -0.946648 0.306244 -0.100361 75 66 58
0.28671 6.55091 12.7287 -0.792919 -0.608377 0.0340232 190 192 183
0.449796 6.50846 12.5947 -0.725911 -0.684753 0.0645494 195 197 189
0.637154 6.53641 12.5495 -0.445415 -0.789956 -0.421396 215 217 207
3.32308 6.4961 11.6667 -0.179805 -0.941598 -0.284715 82 93 98
3.86206 6.46873 11.4705 0.177256 -0.948396 -0.262915 105 116 115
-0.152658 6.51383 12.6805 0.663578 -0.550352 -0.506733 138 135 128
0.220343 6.53652 12.6583 -0.768386 -0.638678 0.0409086 190 191 183
0.254758 6.51199 12.5879 -0.113124 -0.739831 -0.663215 202 202 193
0.269028 6.54971 12.6503 -0.169854 -0.767157 -0.618563 196 197 189
0.584982 6.53385 12.5495 -0.119814 -0.985622 -0.119135 210 211 203
0.733072 6.50553 12.3909 -0.194758 -0.972678 -0.126361 206 207 199
2.01284 6.39108 11.8009 -0.0369566 -0.154438 -0.987311 202 215 211
0.623684 6.57639 12.5304 -0.310399 -0.784032 -0.537538 205 206 197
0.669781 6.424 12.1894 -0.587283 -0.755945 -0.289215 208 209 200
1.99471 6.42619 11.8001 -0.0617411 -0.146392 -0.987298 205 217 212
3.0947 6.50126 11.6254 0.184698 -0.791625 -0.582423 64 75 80
3.15518 6.509 11.5906 -0.496589 -0.848707 -0.181924 77 88 93
0.681893 6.51985 12.3136 -0.174842 -0.976266 -0.127808 205 206 198
3.60771 6.5381 11.4103 0.443873 -0.662581 -0.603294 112 123 123
0.293505 6.42408 12.2088 -0.717048 -0.693374 0.0712355 192 192 185
0.403201 6.55449 12.4354 -0.148928 -0.980031 -0.131754 200 201 192
1.0578 6.56349 12.1979 0.065349 -0.957297 -0.281624 206 207 200
1.12828 6.51454 12.0779 -0.454327 -0.667081 -0.590415 206 207 201
0.484184 6.55571 12.3399 -0.145026 -0.986222 -0.0795825 198 198 190
0.623662 6.54608 12.2717 0.159773 -0.981795 -0.102715 209 210 200
0.547777 6.4366 12.0368 -0.957035 -0.2856 -0.0501772 197 198 191
0.860825 6.54491 12.158 0.398193 -0.459117 -0.794138 210 211 203
0.988293 6.56193 12.1342 0.593604 -0.393859 -0.70179 202 204 196
1.09135 6.56352 12.1608 0.072478 -0.961803 -0.263974 205 207 200
1.10714 6.54229 12.0848 -0.486487 -0.814064 -0.317222 209 210 202
3.06843 6.52528 11.4408 -0.516406 -0.833669 -0.195759 85 98 101
0.475706 6.56088 12.2288 -0.137238 -0.988322 -0.0662194 196 197 188
0.588285 6.58279 12.2772 -0.227907 -0.901526 -0.367844 201 202 194
0.888298 6.56098 12.1431 0.43454 -0.426726 -0.793146 211 212 203
1.07289 6.55937 12.0631 -0.610801 -0.767671 -0.193917 208 209 202
1.11416 6.51506 11.9854 -0.490127 -0.861312 -0.133856 206 208 201
1.56404 6.54097 11.8631 -0.599349 -0.787296 0.144724 216 217 212
2.97838 6.50313 11.3746 -0.845683 -0.492577 0.205396 86 98 100
3.09146 6.51345 11.3125 -0.194265 -0.978101 0.0747008 80 89 90
3.58867 6.52733 11.1795 0.312919 -0.851855 -0.420029 131 137 135
3.78815 6.54389 11.1798 0.302924 -0.824831 -0.477379 198 197 188
3.96899 6.49004 11.0278 0.302897 -0.635163 -0.710508 195 190 182
4.17925 6.54581 11.0655 0.0759919 -0.898651 -0.432032 97 88 78
4.24953 6.53766 11.0422 0.298546 -0.836892 -0.458784 91 81 70
0.769912 6.57507 12.1088 -0.166003 -0.985209 0.0424958 199 201 195
0.961568 6.5789 12.0865 0.527906 -0.702186 -0.477756 202 204 197
1.02729 6.58221 12.0769 0.118274 -0.773994 -0.622049 206 209 201
1.04689 6.58171 12.0449 -0.251141 -0.526891 -0.811982 208 210 203
1.27235 6.53821 11.8709 -0.309623 -0.947143 -0.0839819 209 210 205
3.11705 6.54091 11.3051 -0.125706 -0.991339 0.038008 84 93 94
3.32206 6.47085 11.1157 0.306299 -0.77571 -0.551774 127 133 132
3.33538 6.47706 11.0939 0.234106 -0.752672 -0.615369 165 171 168
3.36141 6.47864 11.1478 0.37351 -0.713459 -0.592846 114 122 122
3.46914 6.5176 11.1759 0.191301 -0.752433 -0.630277 141 147 145
3.53566 6.51156 11.1227 0.0601004 -0.739034 -0.670982 171 175 170
3.74748 6.57817 11.1698 0.27569 -0.769839 -0.575625 199 198 188
3.93543 6.51577 11.0136 0.2775 -0.584873 -0.762179 195 191 183
4.10497 6.50753 10.9256 0.211541 -0.925462 -0.314277 84 75 64
0.540181 6.50379 12.007 -0.951668 -0.30376 -0.0453667 193 194 188
1.68139 6.54117 11.7316 -0.0508779 -0.998314 -0.0279232 231 234 226
2.65322 6.54073 11.4167 0.157218 -0.971035 -0.179927 74 82 84
2.79782 6.54279 11.3802 0.122558 -0.978647 -0.165016 103 113 115
2.87727 6.51619 11.2988 -0.403597 -0.506291 -0.762088 107 117 118
3.1018 6.51579 11.2123 0.244236 -0.925697 -0.288848 110 117 116
3.20952 6.53829 11.2153 -0.125285 -0.991315 0.0399708 131 136 134
3.59014 6.54385 11.1204 0.154716 -0.958558 -0.239227 196 199 193
6.57342 3.44272 16.9405 0.0139259 -0.853212 -0.521378 156 158 156
4.65968 4.56682 21.7077 -0.738267 -0.665195 -0.111699 187 187 181
4.84836 4.53473 21.7238 -0.968532 -0.240392 -0.0644746 191 189 179
6.05682 4.05754 19.3591 -0.952405 -0.302577 0.0370314 118 123 122
4.54978 4.61615 21.6784 -0.884156 -0.460035 -0.0814606 165 166 161
4.62184 4.50619 21.369 -0.716823 -0.692923 -0.0776031 185 185 177
3.60563 5.07258 23.7059 -0.337494 -0.325966 -0.883088 132 132 130
5.74637 4.31138 20.0515 -0.925496 0.346097 -0.153862 149 151 150
6.03792 4.17035 19.5296 -0.825541 -0.563999 0.0196585 67 72 71
4.6138 3.45454 16.2947 -0.224354 -0.868276 -0.44245 113 118 117
7.29484 3.47367 16.3027 -0.615955 -0.787699 0.0113784 193 193 186
4.42859 4.72538 21.716 -0.735335 -0.673093 -0.0789213 121 139 139
5.78942 4.31289 19.9345 -0.995712 -0.08447 -0.0377122 106 109 108
5.91065 4.2279 19.6277 -0.918467 -0.395411 0.00831115 90 94 94
6.22469 3.6415 16.9689 -0.275629 0.343064 -0.897962 231 232 221
7.4041 3.45463 15.9332 0.0483923 -0.438645 -0.897357 231 231 221
4.02321 4.59281 21.1251 -0.883654 -0.463252 -0.0674747 96 122 125
6.08018 4.23136 19.3908 -0.802883 0.215238 -0.555924 108 111 110
6.10875 4.26363 19.3528 -0.959697 0.190155 -0.206938 132 135 134
4.01437 4.64172 21.0574 -0.872892 -0.483501 -0.0654672 85 111 114
6.03013 4.30421 19.4564 -0.804223 -0.0753083 -0.589537 95 97 96
6.05737 4.32218 19.4262 -0.897346 -0.0891063 -0.432239 101 103 103
7.06873 3.51957 15.8677 0.0416674 -0.635808 -0.770722 222 221 213
5.94769 4.42129 19.684 -0.998098 -0.0521697 -0.0328439 98 102 102
4.3058 3.53134 16.032 -0.520807 -0.85011 -0.0779299 132 139 137
4.35083 3.54814 16.0984 -0.674633 -0.738058 -0.0118743 136 142 141
4.83419 3.4853 15.7099 -0.892336 0.431453 -0.132609 177 180 178
5.81771 4.54934 19.9521 -0.941936 -0.308109 -0.133511 92 95 94
4.07493 3.50672 15.7476 -0.638172 -0.769456 -0.0259628 165 173 171
3.17282 5.17828 22.5968 -0.370748 -0.74153 -0.559177 171 172 168
6.06892 5.02122 21.7253 -0.920659 0.344548 -0.183504 58 60 63
6.18651 5.03816 21.8724 -0.924894 0.336272 -0.17746 57 58 61
5.77726 4.65223 20.1807 -0.377843 0.000620514 -0.92587 130 130 128
5.5586 3.50337 15.4745 0.133026 -0.0351354 -0.99049 194 196 190
5.79737 4.60092 19.8849 -0.89506 -0.190476 -0.403219 99 103 102
4.04801 3.63999 15.9293 -0.931906 -0.362441 0.0136902 130 134 134
4.36242 3.59957 15.729 -0.265834 -0.943046 -0.199993 195 197 192
6.04588 3.49586 15.1096 -0.949195 -0.273904 0.154939 200 200 193
5.79419 4.65875 19.8946 -0.972633 -0.0119595 -0.232037 104 107 106
4.32192 3.59139 15.4324 -0.902854 0.134327 -0.408425 190 193 185
5.79203 4.80239 20.0032 -0.408963 -0.808818 -0.422567 144 147 145
3.34473 3.604 15.2892 0.292075 -0.430363 -0.854096 120 128 128
3.31538 3.60554 15.2825 0.22263 -0.436768 -0.87159 108 114 114
1.20523 3.62589 15.5472 -0.592629 -0.548836 -0.589551 102 104 103
5.09029 5.06767 20.9331 -0.917966 0.337157 -0.208957 85 88 84
3.29027 3.59847 15.252 0.271991 -0.38062 -0.883827 111 118 117
3.27777 3.62756 15.2366 0.226018 -0.65467 -0.721335 151 157 156
4.42448 3.66367 15.2769 -0.913288 -0.203505 -0.352834 147 149 142
5.4047 3.71347 15.4115 0.374702 -0.552181 -0.744778 238 238 233
6.93156 3.62193 14.8407 -0.954562 -0.220389 0.200601 196 197 190
5.26249 5.17533 21.152 -0.870053 0.422588 -0.253824 73 78 76
5.37483 5.20555 21.1687 -0.920523 0.334048 -0.202607 73 77 75
3.25912 3.62891 15.2091 0.172008 -0.744124 -0.645517 158 164 162
3.33992 3.64242 15.2494 0.221284 -0.389402 -0.894091 154 161 160
3.33305 3.66007 15.2371 0.229006 -0.40078 -0.887092 144 150 148
1.35617 3.62423 15.1417 -0.813965 -0.282868 -0.507393 80 78 78
5.32618 5.22621 21.1496 -0.928919 0.314574 -0.195329 70 71 69
3.72123 3.76445 15.4271 0.426042 -0.488481 -0.761495 220 221 216
4.30989 3.71456 15.2858 -0.837627 -0.54187 0.0689724 204 205 198
6.56511 3.64137 14.5865 -0.120517 -0.596393 -0.793594 201 201 195
6.52409 3.59725 14.4184 -0.98032 0.162535 0.112054 201 201 194
1.42117 3.64081 15.0354 -0.607175 -0.52993 -0.592041 80 82 83
1.43293 3.62431 15.089 -0.706379 -0.258837 -0.658811 70 69 70
5.32359 5.2916 21.0934 -0.839214 0.245586 -0.485187 110 110 105
3.0713 3.70654 15.1135 0.111571 -0.834119 -0.540182 134 141 140
3.79448 3.67905 15.019 -0.851015 -0.525141 -0.00111675 199 201 197
4.31683 3.78415 15.3278 -0.893998 -0.445483 0.0480783 201 202 197
6.59652 3.75306 14.9598 -0.829267 -0.533888 0.165165 202 203 194
3.61584 3.7232 15.0023 -0.869057 -0.491775 0.0538255 201 202 197
4.53096 3.7055 14.8612 -0.712606 -0.700716 0.034493 203 205 197
4.97007 3.62693 14.4531 -0.624064 -0.780542 0.0360397 133 138 135
5.22846 3.58088 14.2215 -0.893555 -0.432216 0.121446 198 199 193
5.24039 3.58349 14.2333 -0.871003 -0.476874 0.118091 198 199 193
0.997938 3.88003 15.8493 -0.978782 0.0572531 -0.196743 147 160 157
2.93398 3.74152 15.0121 0.111058 -0.839297 -0.532209 124 132 130
4.78338 3.67074 14.477 -0.944408 -0.30604 0.120137 141 144 137
5.25864 3.60086 14.254 -0.921846 -0.367195 0.123963 200 202 196
3.08043 3.7928 15.0584 0.461643 -0.0658366 -0.884619 170 174 170
6.16453 3.74075 14.4168 -0.126856 -0.636029 -0.761167 202 202 197
6.75332 3.56525 13.6697 -0.191944 -0.883372 -0.427563 135 141 139
1.18591 3.84986 15.4039 -0.731961 0.544477 -0.409607 190 203 198
1.641 3.68951 14.7519 -0.688959 -0.219543 -0.690751 100 106 105
1.68754 3.68289 14.7225 -0.636133 -0.26243 -0.725579 90 95 95
5.18433 3.61519 13.9902 -0.931468 0.362148 -0.0348702 195 197 192
6.63983 3.58263 13.6302 -0.138561 -0.921063 -0.363929 158 165 162
1.11438 3.95028 15.6498 -0.969922 -0.215336 -0.113494 60 65 66
1.29754 3.88234 15.3384 -0.550379 0.412004 -0.726178 197 209 205
1.78964 3.70657 14.5489 -0.957825 -0.285368 -0.0337199 116 117 113
3.06623 3.86802 14.9941 0.488077 -0.36626 -0.792234 217 218 214
6.68031 3.61766 13.59 -0.0095371 -0.899517 -0.436781 111 119 119
1.15629 4.00563 15.6378 -0.741092 0.530804 -0.411133 88 92 93
3.75308 3.78898 14.4674 -0.033638 -0.919854 -0.390816 209 211 207
3.85924 3.76311 14.3556 -0.0837883 -0.938215 -0.335755 227 230 225
1.36014 3.92559 15.1583 -0.617297 0.441205 -0.651369 172 181 178
4.73253 3.81295 14.3705 -0.976222 -0.182547 0.116906 198 199 193
5.97679 3.61828 13.3549 -0.501617 -0.675959 -0.539869 232 234 229
1.31523 3.97275 15.2727 -0.825762 -0.0907454 -0.556671 70 76 75
1.73873 3.78973 14.5778 -0.763414 -0.644569 -0.0415924 200 208 204
2.03405 3.80161 14.5551 -0.141913 -0.87678 -0.459476 134 140 137
2.67645 3.84345 14.5826 -0.895398 -0.444323 0.0289688 199 199 194
3.31981 3.82623 14.4785 -0.211881 -0.957879 -0.193838 196 198 194
3.40166 3.83284 14.5013 -0.28402 -0.946384 -0.153914 196 198 194
5.42155 3.64309 13.4133 -0.941703 0.336316 0.00932333 196 198 193
1.28727 4.03689 15.3206 -0.988157 0.0082173 -0.153225 101 107 106
1.33314 3.98088 15.1964 -0.816965 -0.274091 -0.507388 126 132 130
1.94106 3.83494 14.4785 0.536637 -0.125496 -0.834429 144 150 148
5.42895 3.67841 13.4659 -0.711261 0.645301 -0.278737 197 201 194
6.30024 3.67241 13.2842 0.301181 -0.494359 -0.815414 129 142 142
0.723848 3.65281 13.8509 0.500887 -0.565001 -0.655657 167 175 173
3.73081 3.85346 14.1344 -0.303559 -0.628962 -0.715723 218 222 218
4.05812 3.84656 14.063 -0.198928 -0.959845 -0.197801 191 194 190
5.30413 3.84807 13.9302 -0.824459 -0.543393 0.158085 196 199 191
1.04466 4.16444 15.5781 -0.305459 -0.935206 -0.179119 159 165 162
3.82442 3.82928 13.8977 -0.451706 -0.890958 -0.0464277 194 196 192
5.32196 3.84346 13.7164 -0.811444 -0.568636 0.134949 197 199 192
5.27494 3.83259 13.6672 -0.912256 -0.366642 0.182652 197 199 192
2.16072 3.83213 14.1165 -0.930101 0.313276 -0.191757 203 202 196
5.26291 3.86555 13.6801 -0.892821 -0.412345 0.181225 199 201 195
5.34344 3.85128 13.6781 -0.831049 -0.528977 0.171874 195 197 190
5.63535 3.79489 13.4031 -0.302382 0.636091 -0.709897 135 141 134
2.61858 3.90236 14.1128 0.182456 -0.875768 -0.446922 218 217 207
3.26047 3.90333 13.9745 0.192875 -0.752656 -0.62953 215 217 212
3.84479 3.85035 13.7124 -0.811665 -0.574538 0.105387 197 199 194
3.90571 3.8449 13.6808 -0.268376 -0.952456 -0.144229 197 199 195
3.95525 3.84108 13.6988 -0.100205 -0.839616 -0.533857 199 201 196
0.848099 3.68445 13.5561 -0.146957 -0.784349 -0.602661 116 123 122
2.35642 3.91169 14.0175 -0.238759 -0.956612 -0.166995 199 198 192
2.61698 3.8964 14.0351 0.00974163 -0.784193 -0.62044 217 216 206
3.8141 3.83933 13.5348 -0.574847 -0.655592 -0.489643 200 202 197
0.538006 3.74354 13.7012 -0.840293 0.418428 -0.344711 181 193 189
0.578062 3.7687 13.7192 -0.939653 0.235571 -0.24811 180 193 189
0.633647 3.70345 13.4914 -0.543035 0.0484203 -0.838313 193 204 200
2.93742 3.88517 13.7291 0.201397 -0.533403 -0.821535 204 205 200
4.46245 3.88815 13.497 -0.814575 -0.562612 0.141191 200 200 195
0.548576 3.77801 13.6725 -0.398086 0.682461 -0.613004 180 193 190
2.2044 3.90001 13.788 0.360832 0.250759 -0.898287 207 207 202
3.7416 3.91395 13.5966 -0.973749 -0.205045 0.0988399 191 191 186
4.35709 3.84752 13.3172 -0.863196 -0.481198 0.152777 201 201 197
0.235445 3.98105 14.3496 -0.902796 -0.419368 -0.09534 181 194 190
0.2515 3.99279 14.2952 -0.867941 -0.483866 -0.11204 182 195 191
2.08012 3.8824 13.6178 -0.905788 -0.422525 0.0319413 203 202 198
2.08342 3.8294 13.5093 -0.891799 -0.450971 0.0363387 202 202 197
1.4979 3.9617 13.9321 -0.146704 -0.935424 -0.321653 206 206 200
0.194315 4.09438 14.422 -0.978815 -0.121211 -0.165015 165 176 175
0.206552 4.04575 14.3367 -0.979583 0.00787631 -0.200886 129 137 136
0.0971968 4.1527 14.5758 -0.902687 0.280632 -0.326194 173 180 177
2.47333 3.95685 13.4713 0.102104 -0.825172 -0.555577 203 204 199
3.15889 3.90703 13.1651 0.0800529 -0.283802 -0.955536 214 214 207
0.365338 4.05878 14.1279 -0.790337 0.15725 -0.592148 182 193 191
3.28452 3.9248 13.134 -0.876359 -0.467851 0.114499 195 195 189
2.091 3.96396 13.3569 0.0903782 -0.61658 -0.782088 206 206 201
3.1525 3.87431 12.8677 -0.76741 -0.633123 0.101175 198 198 192
3.23166 3.9294 12.9988 -0.821048 -0.559739 0.112124 197 197 191
2.77744 3.94976 13.0543 -0.121186 -0.874087 -0.47041 202 203 198
6.74179 4.3787 13.6961 0.0824759 -0.858171 -0.506695 45 55 61
2.03642 4.00861 13.2479 0.114374 -0.834656 -0.538765 199 199 194
3.86952 3.92557 12.5889 -0.942951 -0.29263 0.158781 191 191 186
4.25506 3.88285 12.3593 0.200122 -0.730036 -0.653451 136 144 142
0.241875 4.26324 14.3629 -0.837029 -0.542265 -0.073016 147 150 146
0.612287 4.11487 13.7151 -0.944108 0.217477 -0.247718 181 195 191
2.70262 3.99038 12.9303 -0.445899 -0.762075 -0.469485 200 200 195
2.81749 4.00531 12.9753 -0.020235 -0.525915 -0.850296 203 202 197
0.308257 4.28101 14.273 -0.892386 -0.444196 -0.0796061 170 180 177
0.370007 4.25164 14.1275 -0.861318 0.1474 -0.486214 182 193 190
1.29318 4.06413 13.3768 -0.396617 -0.913292 -0.092693 193 197 193
4.32353 3.93408 12.3868 -0.489649 0.253634 -0.834214 107 117 117
0.433859 4.26339 14.0408 -0.886662 -0.458192 -0.0623808 169 174 172
0.705799 4.13409 13.5617 -0.987813 -0.110149 -0.109964 183 195 191
0.738798 4.11972 13.4952 -0.920823 0.282763 -0.268569 182 195 192
0.449122 4.30063 14.0574 -0.801455 -0.596168 -0.0474617 142 147 145
0.620127 4.18846 13.7092 -0.969586 0.127935 -0.208651 61 73 70
1.22742 4.03906 13.0946 -0.917703 0.290781 -0.270681 188 197 193
2.95185 4.0174 12.5996 -0.571971 -0.509067 -0.643195 220 219 214
7.72216 4.86373 14.4178 -0.291715 0.180769 -0.939268 124 134 137
0.233195 4.45105 14.4318 -0.956484 0.136226 -0.258033 181 195 193
0.260375 4.41211 14.312 -0.918846 -0.384256 -0.0898368 181 194 190
2.84442 4.02781 12.5617 -0.939108 -0.325779 0.109294 197 198 193
0.246796 4.47591 14.3807 -0.947401 -0.295009 -0.124102 181 194 192
1.84226 4.02998 12.7264 -0.521908 -0.743164 -0.418713 203 203 198
2.85959 4.03811 12.4697 -0.302296 -0.949815 -0.0804277 195 195 190
0.630219 4.31601 13.7141 -0.982102 -0.0493102 -0.181784 46 57 56
4.68807 4.22498 12.6536 0.350515 -0.0633289 -0.934413 90 99 101
0.244401 4.50828 14.3248 -0.908512 0.267482 -0.32103 89 100 98
0.977767 4.17423 13.1477 -0.578084 -0.711891 -0.398786 191 204 200
1.52548 4.10682 12.7637 -0.554737 -0.831977 -0.00897568 189 197 193
2.6671 4.03217 12.3654 -0.829516 -0.552222 0.0833907 199 199 194
4.63827 4.25159 12.6319 0.38144 -0.223988 -0.896846 37 45 48
0.416992 4.47534 14.1057 -0.943572 0.194626 -0.267941 185 198 193
1.04758 4.17017 12.9447 -0.805337 0.466866 -0.365332 181 194 190
1.46931 4.07984 12.601 -0.867052 -0.495982 0.0471576 189 196 193
0.426112 4.48987 14.058 -0.922229 0.21971 -0.318153 183 196 192
1.46998 4.14484 12.7444 -0.845388 -0.532246 0.0450957 191 197 195
0.949474 4.28055 13.1642 -0.987935 -0.0392677 -0.149811 43 51 52
1.38042 4.12274 12.5704 -0.834624 -0.548809 0.0470308 185 198 195
0.424275 4.61016 14.1137 -0.968466 0.0507255 -0.243929 86 98 98
0.674602 4.45037 13.638 -0.961624 0.158667 -0.223841 184 195 192
2.28305 4.075 12.162 -0.329912 -0.912625 -0.2414 208 207 202
0.166063 4.76789 14.6162 -0.577048 0.586681 -0.568174 180 193 190
0.37191 4.67349 14.262 -0.521495 0.61558 -0.59085 182 196 191
1.26261 4.12916 12.4604 -0.969143 -0.246486 0.0025627 183 197 193
2.03221 4.13149 12.287 -0.81212 -0.577115 0.0860223 200 201 197
2.07637 4.15744 12.2769 -0.893167 -0.440027 0.0928967 199 201 196
4.96407 4.52712 12.8235 -0.327812 0.163472 -0.930492 114 127 129
0.279533 4.74492 14.3394 -0.981674 -0.0867615 -0.16967 174 185 183
0.1895 4.77937 14.39 -0.702161 -0.710403 -0.0479423 180 194 190
0.520506 4.65746 13.9367 -0.968969 0.0746861 -0.235629 187 198 196
1.18018 4.28786 12.7442 -0.995564 -0.0602386 -0.0722816 186 198 195
1.93593 4.17125 12.1746 -0.876937 -0.471679 0.0921953 186 194 190
1.80083 4.03486 11.8219 -0.593457 -0.479023 -0.646797 205 208 203
0.439244 4.71888 14.0339 -0.871456 -0.488338 -0.0457237 74 86 87
1.86758 4.15339 12.0448 -0.889596 -0.447432 0.0917834 187 196 192
5.00454 4.64384 12.8144 -0.271194 0.173595 -0.946741 29 35 40
0.639895 4.66965 13.7494 -0.92282 0.257022 -0.286956 182 194 191
1.01186 4.46085 13.0927 -0.945826 0.231601 -0.22754 184 196 192
1.53761 4.20651 12.2277 -0.972563 0.188771 -0.135968 186 200 196
1.74911 4.0765 11.7806 -0.871191 -0.481232 0.097166 185 194 191
4.278 4.47213 12.3604 -0.00390653 -0.173148 -0.984888 101 113 115
0.246099 4.89744 14.442 -0.937443 0.187061 -0.293615 179 193 189
0.472477 4.76017 14.0109 -0.86806 0.343431 -0.358507 162 175 173
0.799447 4.6614 13.5777 -0.953399 0.188637 -0.235471 184 197 193
1.39569 4.30536 12.3917 -0.929112 0.297816 -0.219217 43 52 52
1.86165 4.09335 11.6776 -0.971648 -0.224187 -0.0751012 192 197 193
0.2633 4.91167 14.3561 -0.980244 -0.108317 -0.165495 158 169 167
0.554851 4.78053 13.9155 -0.964813 0.0804511 -0.250326 184 197 193
1.17672 4.5205 12.8742 -0.902309 0.331233 -0.275903 184 196 193
1.55386 4.3257 12.1505 -0.997594 0.0259927 -0.0642622 66 75 74
0.258008 5.03952 14.4325 -0.947907 0.0601994 -0.312807 24 33 34
3.1428 4.344 11.752 0.122562 0.0338998 -0.991882 104 115 117
0.798511 4.78153 13.4919 -0.968637 0.121546 -0.216725 103 114 113
0.976362 4.71228 13.1622 -0.933044 0.254257 -0.254525 177 189 187
5.51202 5.06539 13.1194 -0.108909 0.314513 -0.942985 120 132 135
0.973183 4.74628 13.212 -0.987558 0.0496638 -0.149211 167 180 178
3.08205 4.39447 11.7431 0.0601064 0.0593072 -0.996429 34 39 43
3.08017 4.45412 11.7576 -0.313318 0.0630929 -0.94755 30 35 40
3.72604 4.6833 12.156 -0.291476 0.166273 -0.942017 105 117 118
0.390076 5.20576 14.3131 -0.800645 0.412459 -0.434563 182 195 191
0.791873 4.96033 13.5853 -0.74906 0.253055 -0.612268 185 196 195
0.417153 5.1981 14.2004 -0.965237 -0.165706 -0.202136 182 196 192
0.76206 5.00874 13.5975 -0.776347 0.0755414 -0.625763 184 196 193
1.25552 4.71696 12.7186 -0.939582 0.255809 -0.227482 183 196 194
1.61626 4.54383 12.0713 -0.978499 0.141564 -0.149999 185 197 193
3.19962 4.56064 11.7348 -0.501234 -0.0578755 -0.863374 106 116 120
0.264123 5.3187 14.4986 -0.907659 0.246616 -0.339611 180 195 190
1.63344 4.53643 12.0083 -0.969737 0.199421 -0.140864 183 195 191
0.266243 5.35649 14.4817 -0.8555 0.333822 -0.395832 162 175 172
1.04997 4.94215 13.1449 -0.857887 -0.513014 0.0290926 36 41 43
6.03938 5.54597 13.3985 -0.0572309 0.449722 -0.891333 92 104 110
0.296012 5.36151 14.4002 -0.895337 0.271162 -0.35333 119 130 128
0.397486 5.30127 14.1704 -0.895783 0.278408 -0.346501 182 198 192
1.62187 4.57731 11.8941 -0.89408 -0.438036 0.0935186 184 197 192
1.69441 4.56899 11.9083 -0.847504 -0.523994 0.0846608 183 195 191
3.52893 4.77922 11.9898 0.40122 -0.3319 -0.853736 33 39 43
6.08781 5.5671 13.4348 -0.0885393 0.396106 -0.913926 112 124 129
1.67664 4.58677 11.8528 -0.913868 -0.395427 0.0921011 183 196 192
0.468354 5.33541 14.0942 -0.94941 0.157535 -0.271666 189 199 196
0.695633 5.26027 13.7951 -0.925368 0.237612 -0.295355 184 198 193
0.760936 5.25109 13.7751 -0.747467 -0.664138 -0.0146038 185 198 193
1.00761 5.01921 13.1007 -0.313412 -0.948308 -0.0498492 141 150 150
1.31407 4.84143 12.5441 -0.890038 -0.452459 0.0557936 40 43 45
0.474726 5.36766 14.0914 -0.969453 0.0243272 -0.244069 165 175 174
1.02025 5.06638 13.0975 -0.865938 -0.499212 0.0306266 186 196 194
1.33583 4.83851 12.4775 -0.870832 -0.487242 0.065174 37 40 42
1.03961 5.05896 12.9852 -0.712818 -0.699561 0.0500421 183 195 191
0.928665 5.25834 13.4191 -0.880824 -0.473244 0.0137629 184 198 191
2.2191 4.50727 11.1534 -0.339972 0.0564263 -0.938741 100 110 111
3.89283 5.07785 12.1501 -0.705919 -0.4375 -0.557021 90 100 102
1.28652 5.03612 12.6597 -0.99031 -0.110206 -0.084502 63 72 73
1.71055 4.79596 11.9388 -0.862474 -0.501098 0.0709923 187 197 195
2.23669 4.53121 11.1563 -0.523199 -0.000266284 -0.85221 96 106 108
2.25794 4.55059 11.1488 -0.5 0.191394 -0.844611 86 95 98
2.23391 4.56699 11.1641 -0.374314 0.0745462 -0.924301 103 113 115
0.223431 5.70596 14.475 -0.679736 -0.733397 -0.00939885 116 125 120
1.79659 4.8079 11.7996 -0.995963 -0.0891326 -0.0106614 187 199 195
1.29038 5.08389 12.5876 -0.838622 -0.539957 0.071835 183 195 192
0.445316 5.64526 14.1526 -0.823935 -0.566589 -0.0103371 190 203 199
0.460348 5.63493 14.1137 -0.78964 -0.61357 -0.000972241 188 200 197
1.14907 5.07399 12.5017 -0.80877 -0.583749 0.0716077 183 196 192
1.15032 5.28308 12.9289 -0.859178 -0.509067 0.0516151 185 198 194
4.27399 5.51109 12.4499 0.316587 0.00211105 -0.948561 108 119 122
0.47695 5.72104 13.9848 -0.830831 -0.556519 -0.00253841 108 118 112
1.03294 5.44143 13.1401 -0.8461 -0.531108 0.0451448 50 59 60
2.20801 4.77155 11.211 -0.18261 -0.029711 -0.982737 97 107 107
1.08142 5.41779 12.9871 -0.839331 -0.540876 0.0545559 55 62 64
1.57554 5.15706 12.1866 -0.97825 -0.205725 0.0265544 184 195 192
3.14131 5.15387 11.7922 -0.233694 0.199536 -0.951616 100 110 113
3.16955 5.17622 11.7913 -0.497062 0.164474 -0.851985 94 105 107
0.809434 5.69191 13.6946 -0.837626 0.348343 -0.420761 186 199 194
2.32986 4.81364 11.1108 -0.145098 -0.160694 -0.976281 97 107 113
0.227664 6.07489 14.6274 -0.769097 -0.4677 -0.435599 152 161 156
0.276182 5.99454 14.5022 -0.841437 0.296949 -0.451447 79 88 82
1.45555 5.31879 12.4734 -0.774705 -0.62455 0.0988429 186 198 194
1.477 5.32726 12.4868 -0.704082 -0.703027 0.100107 186 198 194
1.61569 5.18772 12.0937 -0.863779 -0.49232 0.10727 184 196 192
2.34717 4.84018 11.0995 0.344647 -0.49832 -0.795548 98 108 110
0.315373 6.05628 14.5314 -0.505463 -0.157706 -0.848314 87 91 88
0.927144 5.67298 13.3925 -0.943255 0.199615 -0.265377 188 200 196
1.12679 5.49985 12.9702 -0.495108 0.377505 -0.782533 52 61 62
1.67636 5.16766 11.9971 -0.95317 0.236739 -0.188206 182 194 191
4.15128 5.6152 12.3195 0.239233 -0.854039 -0.461936 99 109 112
0.308911 6.09427 14.5373 -0.838568 0.211671 -0.501995 74 78 74
1.22726 5.47273 12.7673 -0.740649 0.35327 -0.571524 186 199 196
1.66922 5.2082 11.9684 -0.881321 -0.459291 0.111016 183 195 192
6.34853 6.13127 12.8143 -0.111354 -0.901375 -0.418477 115 124 124
0.333787 6.12802 14.5079 -0.701642 0.206258 -0.682024 82 84 81
1.54635 5.32593 12.2045 -0.962151 0.200507 -0.18456 184 197 193
4.40656 5.8241 12.5979 -0.376422 0.0281146 -0.926021 91 102 106
6.45377 6.14395 12.7401 0.0385417 -0.80531 -0.5916 170 178 177
0.308563 6.16859 14.5013 -0.786034 -0.318898 -0.52958 106 106 101
3.926 5.66072 12.1988 0.149891 -0.713414 -0.684524 92 105 107
6.36048 6.17935 12.6775 0.110417 -0.757254 -0.643719 176 181 176
6.4092 6.17787 12.6743 0.0145938 -0.80935 -0.587145 198 200 192
6.415 6.17904 12.6474 -0.129618 -0.857724 -0.497502 204 204 194
0.332824 6.19981 14.4947 -0.561914 0.0239014 -0.82685 98 99 93
1.3901 5.54323 12.6167 -0.811594 -0.576579 0.0941872 47 53 57
2.30517 5.01869 11.1227 -0.377515 0.257814 -0.88939 93 103 106
4.43313 5.93802 12.6096 -0.377665 0.0248341 -0.925609 82 92 95
0.565417 6.2455 14.4571 -0.0520213 -0.928991 -0.366429 86 88 81
3.66076 5.66057 12.0951 0.313724 -0.633584 -0.707212 82 90 93
0.534484 6.18042 14.2187 -0.970758 -0.216618 -0.103469 85 88 81
1.10668 5.71499 12.9377 -0.841191 -0.536743 0.0656037 189 203 200
1.1872 5.71249 12.9161 -0.95267 0.192203 -0.235537 189 203 199
1.41757 5.6084 12.5841 -0.89641 -0.436983 0.0741317 43 51 54
1.78575 5.35036 11.899 -0.0465889 0.0676032 -0.996624 192 205 202
0.479233 6.26305 14.3172 -0.496258 -0.868061 0.0140762 117 119 107
1.06337 5.87639 13.2557 -0.814702 -0.576528 0.0622511 191 205 198
1.82461 5.38515 11.8904 -0.208642 -0.0690175 -0.975554 200 212 210
4.50982 6.04816 12.6065 0.0937253 0.0212148 -0.995372 21 26 32
0.471385 6.29079 14.2884 -0.429654 -0.902833 0.0170521 133 134 121
1.04444 5.93324 13.2705 -0.845982 -0.30848 -0.434919 190 201 196
3.54407 5.70425 12.0301 0.34189 -0.642602 -0.685692 95 105 107
4.26216 5.99044 12.476 0.125661 0.0752671 -0.989214 95 107 112
2.34949 5.26498 11.2511 0.442296 -0.331137 -0.8335 108 119 120
4.06577 5.94061 12.3283 0.382956 -0.638431 -0.667645 27 32 38
1.16834 5.9152 13.0704 -0.925469 -0.377665 0.0296059 191 205 201
1.70111 5.57074 12.1244 -0.962429 -0.270717 0.0210272 52 60 63
1.71773 5.54358 12.0233 -0.93277 -0.223823 -0.282567 56 64 66
5.5406 6.27463 12.4659 -0.191276 -0.937261 -0.29147 113 124 125
0.289833 6.32566 14.1291 -0.327585 -0.944817 0.00308612 173 166 151
0.365162 6.27671 14.0659 -0.315663 -0.948871 0.000669122 133 129 115
1.14518 5.94053 13.0653 -0.989206 0.0156059 -0.145698 183 195 191
1.41095 5.86123 12.7583 -0.833204 -0.544856 0.0943623 194 207 201
1.7137 5.58631 12.0385 -0.947956 -0.24354 -0.205103 49 59 62
1.79727 5.50323 11.8478 -0.99837 -0.0562271 -0.00979841 184 196 193
0.441052 6.29501 13.9978 -0.362049 -0.932151 0.00401643 126 123 109
1.14561 6.00009 13.0843 -0.986076 0.0466475 -0.159618 113 125 121
1.53252 5.75612 12.3984 -0.949542 0.220995 -0.222555 187 200 195
1.69091 5.64454 12.1345 -0.788234 -0.600287 0.135437 57 67 71
4.29486 6.16008 12.484 -0.226434 -0.0595508 -0.972204 92 106 113
5.56055 6.2933 12.3264 0.0548635 -0.895177 -0.442321 92 101 100
3.84225 6.02427 12.2353 0.145489 -0.304129 -0.941455 85 97 102
1.43301 5.86609 12.5562 -0.583028 -0.243773 -0.775018 194 207 202
5.34866 6.30451 12.2714 0.102944 -0.873142 -0.476473 120 131 131
0.457289 6.34817 13.8316 -0.716756 -0.695881 0.0448509 177 167 154
0.848646 6.24315 13.4631 -0.734586 -0.674959 0.0693851 193 202 197
1.619 5.74242 12.0762 -0.839852 -0.527407 0.128414 189 203 200
0.158768 6.34679 13.8061 -0.185123 -0.982475 -0.0217408 171 165 151
0.830859 6.29131 13.4811 -0.959973 -0.277554 -0.0376322 196 203 198
1.51298 5.84388 12.2682 -0.817001 0.41345 -0.401956 191 203 198
1.567 5.85974 12.3154 -0.951426 0.216057 -0.219338 191 203 199
3.43573 5.98382 12.0116 0.321354 -0.640807 -0.697207 86 95 98
0.136101 6.33734 13.7657 -0.519858 -0.853339 0.0395032 171 166 153
1.48894 5.9657 12.5172 -0.892469 -0.442152 0.0894468 191 203 198
1.61293 5.86765 12.2685 -0.9271 0.27089 -0.259045 192 204 200
5.41065 6.33708 12.0511 0.0954355 -0.960162 -0.262643 227 227 218
0.092364 6.36276 13.6976 -0.665268 -0.745525 0.0401389 184 182 171
0.883575 6.38221 13.4911 -0.923171 0.221884 -0.313883 206 212 206
1.1504 6.22269 13.0481 -0.922077 -0.385382 0.0354293 95 107 104
1.46105 6.01264 12.5162 -0.989789 0.0211731 -0.140962 98 109 105
1.56698 5.98062 12.4173 -0.97261 -0.232104 0.0125671 192 204 198
0.0804209 6.33538 13.5975 -0.384944 -0.894201 -0.228522 195 195 189
1.13259 6.25111 13.0402 -0.778755 -0.620482 0.0924285 192 205 200
0.96116 6.38932 13.3681 -0.737909 -0.669793 0.0828739 210 213 205
4.62647 6.40415 12.1499 0.0357215 -0.811314 -0.583518 96 105 108
1.29104 6.24271 12.8596 -0.945549 0.174768 -0.274578 195 206 204
4.43316 6.37298 12.1308 0.298184 -0.830899 -0.469781 79 90 94
-0.0781282 6.45242 13.684 -0.763652 -0.374958 -0.525587 186 187 182
0.872081 6.31597 13.0078 -0.740759 -0.661581 -0.116562 214 215 208
3.08852 6.05407 11.7979 0.409961 -0.631391 -0.658238 37 44 47
4.38963 6.39227 12.0719 0.186113 -0.922798 -0.337352 80 93 95
-0.0731899 6.46859 13.6361 -0.775455 -0.426624 -0.46547 180 182 176
2.76229 5.9562 11.5815 0.0917959 0.24574 -0.96498 104 116 117
-0.0784696 6.50456 13.6251 -0.695834 -0.589382 -0.410418 178 181 175
0.66114 6.41237 13.1988 -0.299244 -0.914456 -0.27244 224 226 215
0.827858 6.3057 12.8891 -0.77537 -0.625531 0.0866723 213 214 207
0.0488557 6.45271 13.3493 -0.23944 -0.913513 -0.328879 195 197 190
1.41509 6.34289 12.7067 -0.860731 0.345378 -0.373974 200 212 209
3.67065 6.41454 12.0714 -0.0704407 -0.926876 -0.368698 80 91 98
0.808292 6.352 12.8717 -0.439312 -0.894621 0.0815999 212 213 206
1.44499 6.32639 12.5625 -0.943556 -0.326809 0.0538237 190 200 199
0.127596 6.48415 13.2866 -0.227271 -0.905618 -0.358057 202 204 196
0.732263 6.47364 13.029 -0.659029 -0.74593 0.0962764 219 220 212
0.723868 6.409 12.8965 -0.776186 -0.624808 0.0845572 218 220 213
4.16871 6.45033 11.8114 0.0398916 -0.964314 -0.26174 89 97 99
2.01745 5.90719 11.334 -0.144553 -0.0203293 -0.989288 207 218 212
3.54875 6.4489 11.9558 0.114653 -0.924564 -0.363369 63 75 81
3.8131 6.4368 11.879 -0.861126 -0.419416 -0.28732 70 79 86
0.224982 6.48398 13.0954 -0.490366 -0.729405 -0.476979 205 206 199
1.56514 6.3588 12.3492 -0.994751 0.0176885 -0.100779 179 187 182
1.9975 5.9169 11.3489 -0.146851 -0.0768758 -0.986167 208 216 210
0.619003 6.41263 12.7136 -0.0404009 -0.998616 -0.0336638 199 200 193
0.820866 6.45848 12.7567 -0.765235 -0.636136 0.0987228 214 216 208
0.67803 6.44116 12.7135 -0.262648 -0.964019 0.0410415 199 201 194
1.88509 6.2219 11.8677 -0.899552 0.318864 -0.298549 198 209 206
1.87339 6.18126 11.7686 -0.940448 0.250519 -0.22978 196 208 204
-0.34268 6.47854 13.0282 0.528567 -0.0791205 -0.845197 53 53 49
1.75589 6.3028 11.9644 -0.926719 -0.35945 0.109484 138 150 149
3.69545 6.48016 11.634 0.435653 -0.505309 -0.744896 88 99 101
-0.144793 6.53639 12.9888 -0.100667 -0.981921 -0.160305 162 159 151
1.88023 6.33625 11.8628 -0.948057 0.229424 -0.220348 203 214 210
1.07907 6.49501 12.3783 -0.285478 -0.865293 -0.412032 220 221 212
1.79189 6.44825 12.05 -0.986665 -0.151513 -0.0594705 206 213 209
1.76865 6.43749 11.9984 -0.983286 0.112837 -0.142885 211 218 214
3.14607 6.50356 11.6468 0.0645407 -0.970742 -0.231287 71 82 86
0.370725 6.5134 12.5933 0.117833 -0.963813 -0.239123 205 206 196
3.11405 6.51681 11.6266 -0.288738 -0.843605 -0.452726 77 88 92
-0.383876 6.52891 12.7753 -0.420569 -0.795812 -0.435665 138 137 128
0.651635 6.51574 12.415 -0.548368 -0.804654 -0.227652 207 208 199
2.17656 6.25103 11.3342 -0.510422 0.0819409 -0.856011 201 213 210
0.701085 6.51422 12.3296 -0.0589681 -0.996876 -0.0525462 205 207 197
3.14158 6.46924 11.3916 -0.0224704 -0.788655 -0.614425 88 100 105
0.556362 6.58226 12.4281 -0.14096 -0.987513 -0.0703395 199 201 191
3.10907 6.49387 11.3843 -0.511702 -0.806543 -0.296057 84 94 97
-0.385183 6.59866 12.6299 -0.05617 -0.930997 -0.36068 135 132 125
-0.361084 6.5842 12.6102 -0.182999 -0.966212 -0.181509 132 130 124
0.0383982 6.57328 12.4299 0.320553 -0.732604 -0.600447 154 151 144
-0.344752 6.57589 12.5166 -0.148103 -0.973347 -0.175102 148 147 140
-0.290556 6.5879 12.5067 0.39232 -0.745831 -0.538351 156 155 147
2.58794 6.55164 11.42 -0.00668757 -0.986367 -0.164428 85 95 97
2.72538 6.54095 11.3752 -0.476027 -0.616905 -0.62676 102 111 112
2.89651 6.51936 11.2914 -0.550114 -0.388602 -0.739164 109 120 120
2.99719 6.51075 11.2603 -0.655865 -0.536225 -0.531323 98 108 110
3.20393 6.46597 11.0424 -0.0880503 -0.996025 0.0134876 204 208 203
3.34107 6.50818 11.1172 0.302273 -0.734376 -0.60772 191 197 194
3.34107 6.50818 11.1172 0.302273 -0.734376 -0.60772 191 197 194
3.68818 6.57382 11.125 0.279798 -0.850619 -0.445151 202 201 190
3.7259 6.51199 10.9493 0.138872 -0.963995 -0.226779 201 199 190
3.89452 6.53086 10.9905 0.282346 -0.844558 -0.454975 161 158 149
-0.381281 6.58937 12.4711 -0.189345 -0.959294 -0.20953 179 176 168
0.683786 6.53335 11.9947 -0.261223 -0.961048 -0.0902693 198 201 193
1.58893 6.49627 11.6503 -0.167412 -0.985458 -0.0290874 221 222 216
2.23054 6.46342 11.316 0.132217 0.019319 -0.991033 194 202 198
2.2328 6.4592 11.3165 0.0545768 0.0318656 -0.998001 186 194 191
2.32514 6.46769 11.3235 -0.172313 -0.727973 -0.6636 110 120 121
2.46182 6.52078 11.3554 -0.657001 -0.582752 -0.478278 90 100 101
2.53775 6.54166 11.4032 -0.6584 -0.544603 -0.519535 92 102 104
2.66049 6.55184 11.3784 -0.435397 -0.866046 -0.245752 87 95 97
2.8193 6.53815 11.2928 -0.411953 -0.765777 -0.493842 115 125 124
2.892 6.53548 11.2697 -0.448803 -0.352563 -0.821142 126 136 136
2.93653 6.56206 11.2476 0.400362 -0.293633 -0.868038 140 147 146
3.10025 6.52493 11.1729 0.250122 -0.922176 -0.295008 184 188 183
3.08688 6.50378 11.0861 -0.615533 -0.5447 -0.56958 190 192 187
3.13949 6.50464 11.0777 -0.295545 -0.933774 -0.201792 199 202 197
3.3456 6.53142 11.0993 0.322976 -0.810053 -0.489387 206 208 202
3.50413 6.5618 11.1118 0.193987 -0.718266 -0.668179 195 196 189
3.76813 6.52887 10.908 0.374849 -0.587411 -0.717242 209 206 196
3.91408 6.5758 10.9541 0.364766 -0.636216 -0.679835 88 82 71
-0.33898 6.58896 12.435 -0.251826 -0.651805 -0.715356 172 170 162
0.117058 6.58479 12.2324 0.548185 -0.569246 -0.612741 145 141 133
1.47162 6.56396 11.7026 -0.123782 -0.879043 -0.460393 153 155 149
1.58859 6.50698 11.6126 -0.249964 -0.966783 -0.0533827 221 223 216
1.5682 6.51545 11.5929 -0.0195838 -0.999598 -0.0204852 224 226 219
2.21426 6.492 11.3102 0.220899 -0.0200399 -0.975091 226 232 229
2.25002 6.49181 11.3147 0.142769 -0.0682524 -0.9874 121 128 126
2.32749 6.4912 11.2994 -0.321038 -0.524488 -0.788573 144 154 155
2.48202 6.53465 11.3523 -0.545264 -0.746661 -0.38103 94 104 105
2.5097 6.54864 11.3647 -0.44527 -0.831942 -0.33107 95 105 106
2.6982 6.56046 11.2658 -0.585179 -0.535148 -0.609248 190 196 193
2.79091 6.55901 11.2855 -0.494195 -0.669568 -0.554482 151 159 158
2.80394 6.58206 11.2987 -0.379522 -0.763403 -0.522665 175 184 183
2.89072 6.55859 11.2495 -0.573582 -0.63967 -0.511689 172 180 179
2.94188 6.59141 11.2418 0.381199 -0.377468 -0.843923 188 193 189
3.077 6.52593 11.0617 -0.655096 -0.553369 -0.514423 198 198 193
3.09819 6.52349 11.0913 -0.648813 -0.58174 -0.49053 191 194 189
3.52808 6.51533 10.9382 -0.0458396 -0.885731 -0.46193 185 183 172
3.71113 6.55073 10.9472 0.241377 -0.887874 -0.391685 206 203 193
3.86456 6.58663 10.9195 0.149659 -0.444071 -0.883404 79 76 65
0.806509 6.51314 11.8025 -0.765053 -0.400822 -0.504019 201 202 195
0.815236 6.48195 11.7658 -0.762752 -0.504399 -0.404711 201 203 196
1.37762 6.56678 11.7067 -0.0956499 -0.980452 -0.171945 220 221 215
1.50036 6.57072 11.6858 -0.380099 -0.557308 -0.738195 224 225 219
1.56512 6.52796 11.5474 -0.568596 -0.723598 -0.391286 226 228 221
1.58743 6.5256 11.522 -0.570665 -0.624136 -0.533663 228 230 223
1.65801 6.50137 11.461 -0.784938 -0.520097 -0.336706 223 226 219
2.22983 6.52511 11.3176 -0.0427739 -0.00474483 -0.999074 213 219 216
2.30682 6.51583 11.2931 -0.353608 -0.494498 -0.793998 109 118 118
2.37398 6.52796 11.2711 -0.219919 -0.38024 -0.898362 120 129 128
2.66582 6.59525 11.2814 -0.577082 -0.585869 -0.568976 211 215 213
2.77671 6.58973 11.2595 -0.36577 -0.8982 -0.243823 208 215 213
2.86035 6.60272 11.2205 0.101718 -0.481175 -0.870703 189 192 187
2.90805 6.5955 11.221 -0.106369 -0.56287 -0.819672 194 198 193
2.97871 6.60073 11.2237 0.102528 -0.984147 -0.144718 209 210 204
3.00915 6.6216 11.223 -0.647745 -0.579832 -0.494187 199 200 193
3.00918 6.62155 11.223 -0.64711 -0.581876 -0.492614 199 200 193
3.06347 6.54785 11.0584 -0.636477 -0.615812 -0.464406 200 200 194
3.08877 6.53895 11.0232 -0.660155 -0.528893 -0.533355 200 200 194
3.09183 6.53351 11.0153 -0.668284 -0.469572 -0.576973 200 200 193
3.53669 6.54713 10.8901 0.0339916 -0.725037 -0.687871 193 191 180
3.64212 6.54718 10.8338 0.381448 -0.531292 -0.756456 209 205 194
3.80879 6.58015 10.9025 0.367301 -0.422436 -0.828636 109 106 96
3.90275 6.61389 10.8989 0.322498 -0.752297 -0.574495 73 67 57
0.374095 6.59871 12.047 -0.340869 -0.870195 -0.355767 161 159 149
0.510077 6.58517 11.9647 -0.389796 -0.86094 -0.326867 196 196 187
0.780127 6.5689 11.8596 -0.733068 -0.576363 -0.361133 200 202 193
1.37407 6.57403 11.6615 0.0903262 -0.971136 -0.220763 216 217 211
1.47632 6.58492 11.6619 -0.190586 -0.868504 -0.457578 222 223 218
1.50566 6.58461 11.6399 -0.6122 -0.671094 -0.418144 209 210 205
1.52882 6.55585 11.5659 -0.61399 -0.650934 -0.446432 212 214 208
1.60927 6.54523 11.5322 -0.261289 -0.951763 -0.160856 231 232 226
1.64831 6.51292 11.4621 -0.770276 -0.553163 -0.317311 224 227 220
2.24928 6.55354 11.3128 -0.148663 -0.0833843 -0.985366 189 195 192
2.31919 6.54706 11.2835 -0.211295 -0.235408 -0.948651 188 196 195
2.32908 6.55683 11.2499 0.0967265 -0.666359 -0.739331 220 227 224
2.49881 6.53469 11.1895 -0.0825661 -0.996346 -0.0218387 210 215 214
2.68004 6.61443 11.2869 -0.571033 -0.600829 -0.559397 210 215 213
2.67679 6.59087 11.2435 -0.274556 -0.718292 -0.639277 212 217 213
2.67108 6.60551 11.2374 -0.238743 -0.229275 -0.943628 211 215 211
2.70578 6.59401 11.2042 0.164298 -0.33149 -0.929043 196 201 197
2.74971 6.59587 11.2248 -0.305584 -0.886144 -0.348378 191 196 194
2.78156 6.58715 11.2035 0.371757 -0.406881 -0.834413 170 174 171
2.80204 6.60867 11.1975 0.422586 -0.492622 -0.760752 188 190 185
2.88121 6.61536 11.215 0.0260932 -0.560297 -0.827881 204 207 202
2.86727 6.588 11.1196 -0.340518 -0.922967 -0.179388 208 209 202
3.59086 6.57306 10.8676 0.226906 -0.915838 -0.331291 207 204 196
3.63854 6.54694 10.832 0.380094 -0.496287 -0.780531 209 205 194
3.84618 6.62523 10.8996 0.211775 -0.610363 -0.763288 77 74 63
2.73271 6.6103 11.2016 0.173417 -0.506374 -0.844696 171 175 171
2.7499 6.60477 11.1645 -0.10997 -0.808684 -0.577873 199 201 194
2.87118 6.63968 11.1851 -0.143467 -0.989352 -0.0245105 209 210 202
6.11744 4.08473 19.4903 -0.916119 -0.396137 0.061658 129 133 131
5.94174 4.16238 19.6634 -0.951939 0.294279 -0.0849231 94 98 99
5.87056 4.26712 19.8329 -0.982336 0.172411 -0.0727331 116 121 119
6.80186 3.62768 16.6471 -0.578082 -0.334038 -0.744473 233 233 224
5.9885 4.28907 19.6506 -0.966685 0.239794 -0.089544 105 108 109
4.54941 3.5013 16.1918 -0.521079 -0.0989213 -0.847757 148 153 152
6.1342 4.2968 19.3028 -0.908293 -0.408516 -0.0901081 107 109 109
5.82235 4.47997 19.9336 -0.857709 0.0266557 -0.513443 93 96 96
6.10469 4.35049 19.41 -0.938096 -0.339744 0.0674533 123 125 125
6.07981 4.31565 19.1936 -0.862375 -0.506215 0.00744009 137 140 139
6.5701 3.49364 15.508 -0.865554 -0.4682 0.177778 192 193 184
5.92627 4.44824 19.5726 -0.921102 -0.387849 0.0338378 110 113 115
6.65003 3.67236 16.0808 -0.159598 -0.464303 -0.871178 224 225 213
5.81037 4.54718 19.8832 -0.951977 -0.305484 0.0204817 103 107 107
5.94269 4.52924 19.7769 -0.582581 -0.147136 -0.799344 67 71 74
6.67987 3.72024 16.06 0.164968 0.0497041 -0.985046 234 234 223
5.94019 4.57103 19.6787 -0.996297 -0.0859743 0.000916153 62 66 68
6.9147 3.46398 14.7024 -0.974832 -0.0549674 0.216059 197 195 188
6.86382 3.42877 14.7012 -0.938444 -0.255043 0.232971 197 196 188
5.7636 4.71248 20.1433 -0.91141 0.227976 -0.342578 122 123 120
5.9628 4.62128 19.6568 -0.915835 0.368318 -0.159965 54 58 60
5.93846 5.10991 21.5328 -0.918534 0.323976 -0.226573 107 109 108
5.67228 4.78962 20.2313 -0.957222 -0.288828 -0.0174653 155 156 151
5.73083 4.76078 20.0798 -0.543753 -0.725434 -0.421993 119 120 116
5.87793 4.71661 19.8296 -0.583484 -0.385045 -0.715043 93 96 95
6.84315 3.49012 14.6043 -0.91618 -0.324395 0.235335 199 199 192
5.72097 4.85035 20.38 -0.994526 -0.104307 0.0061093 168 169 162
5.6767 4.79658 20.0726 -0.997811 -0.0020123 -0.0661055 146 148 144
5.70786 4.80329 20.0389 -0.915056 0.371719 -0.156517 151 153 150
5.69086 4.89227 20.2093 -0.979623 -0.200843 -0.000988036 129 131 126
5.8248 4.81787 19.8814 -0.947839 -0.316307 -0.0393994 103 106 105
5.90643 4.76711 19.8143 -0.686956 0.246664 -0.683556 111 113 112
3.30214 3.61211 15.2736 0.251291 -0.492583 -0.833195 119 125 124
