ply
format ascii 1.0
element vertex 732
property float x
property float y
property float z
property float nx
property float ny
property float nz
property uchar diffuse_red
property uchar diffuse_green
property uchar diffuse_blue
end_header
1.29765 3.90075 15.3614 -0.866799 0.0659111 -0.494283 174 185 181
1.33602 3.82152 15.1766 -0.844554 -0.210776 -0.492241 205 218 213
1.43381 3.77145 14.9961 -0.651264 -0.296995 -0.698319 201 213 209
1.47223 3.79841 14.9783 -0.707202 -0.269049 -0.653818 198 211 206
1.4899 3.78579 14.9457 -0.686797 -0.384119 -0.617059 195 207 201
1.49395 3.74467 14.8822 -0.563429 -0.434532 -0.702659 202 212 208
1.47807 3.75866 14.8258 -0.523324 -0.762828 -0.379771 198 210 205
1.5232 3.74139 14.8506 -0.701666 -0.514113 -0.493308 194 204 200
1.54691 3.73195 14.8295 -0.786432 -0.347193 -0.510864 179 188 185
1.59817 3.72661 14.7864 -0.630152 -0.493482 -0.599486 148 156 153
1.63255 3.71955 14.7404 -0.687198 -0.247618 -0.682968 120 126 124
1.67484 3.70834 14.696 -0.68938 -0.392474 -0.608867 104 108 106
2.33942 3.70599 14.75 0.588936 -0.413377 -0.69446 178 185 182
2.35902 3.73941 14.7578 0.601552 -0.355302 -0.715469 150 156 154
2.43337 3.73291 14.7903 0.431217 -0.442431 -0.786325 146 151 150
2.46747 3.73066 14.7998 0.56722 -0.369074 -0.736238 144 149 148
2.69892 3.76587 14.9232 0.00869394 -0.672667 -0.739895 128 133 131
2.75293 3.76087 14.8985 0.452815 -0.473359 -0.755572 122 127 125
2.81958 3.76039 14.9194 0.277486 -0.715074 -0.641615 114 118 117
2.86583 3.77978 14.9305 0.251 -0.821267 -0.512366 120 123 121
2.96348 3.7926 14.9909 0.136928 -0.80315 -0.579828 154 157 153
3.00441 3.78144 15.0031 0.387112 -0.74707 -0.540398 154 157 153
3.0322 3.80667 15.0118 0.556115 -0.280486 -0.782345 207 209 206
3.04563 3.79157 15.037 0.519003 -0.0895596 -0.850068 166 169 165
3.09643 3.82376 15.0628 0.481454 -0.0389119 -0.875607 202 204 200
3.30983 3.80441 15.1027 0.197415 -0.748181 -0.633446 231 233 228
4.03169 3.72396 14.7217 -0.276107 -0.944826 -0.176261 203 204 200
4.30304 3.72664 14.714 -0.177673 -0.950009 -0.25674 200 202 197
4.40549 3.71649 14.7311 -0.211091 -0.522759 -0.825932 217 219 213
4.49053 3.74003 14.7606 -0.0609003 -0.921407 -0.383796 219 220 213
4.65738 3.72196 14.6958 -0.687323 -0.591601 -0.421421 202 204 196
4.65795 3.72217 14.6965 -0.694977 -0.581541 -0.422868 202 204 196
4.76967 3.74573 14.7716 -0.580672 -0.717131 -0.385413 195 197 189
4.85336 3.67881 14.5717 -0.428946 -0.856522 -0.28701 135 137 130
4.9428 3.65472 14.5181 -0.158615 -0.848509 -0.50485 134 138 134
5.11235 3.65067 14.5613 -0.936665 -0.348804 -0.031541 124 128 124
0.445286 4.12761 16.123 -0.0479989 -0.0646445 -0.996753 117 125 123
1.03866 4.02695 15.78 -0.702969 0.0983901 -0.704382 156 168 166
1.13227 4.01363 15.6741 -0.847501 -0.139717 -0.512076 77 84 83
1.16759 3.96012 15.5423 -0.349797 0.0886804 -0.932619 140 151 147
1.23171 3.93817 15.389 -0.693635 0.0849099 -0.715304 183 195 192
1.25376 3.93544 15.4111 -0.522719 0.035676 -0.851758 169 180 176
1.32181 3.90109 15.3134 -0.83198 0.126243 -0.540252 177 188 184
1.30376 3.90961 15.2787 -0.778641 0.13796 -0.612116 138 149 145
1.41069 3.84709 15.0812 -0.817602 -0.280078 -0.503073 204 217 212
1.46478 3.81915 14.9295 -0.801273 -0.262556 -0.537611 205 218 213
1.51564 3.75793 14.8026 -0.539835 -0.682892 -0.492176 201 212 207
1.49726 3.75551 14.7833 -0.380664 -0.844635 -0.376412 200 211 207
1.54279 3.76747 14.7429 -0.35695 -0.833476 -0.421788 202 213 208
1.5586 3.76565 14.7163 -0.487257 -0.793684 -0.364207 200 210 206
1.6019 3.7526 14.7605 -0.592918 -0.52769 -0.608269 199 209 205
1.66181 3.73825 14.6878 -0.702938 -0.332171 -0.628921 149 156 152
1.7124 3.72359 14.6382 -0.694381 -0.359197 -0.623549 103 108 105
2.02361 3.71744 14.6175 0.602273 -0.413035 -0.683132 102 109 108
2.25616 3.74657 14.6933 0.586291 -0.14921 -0.79624 148 153 151
2.3784 3.75291 14.6991 0.5584 -0.423511 -0.713322 138 143 142
2.40044 3.75682 14.747 0.401363 0.0707137 -0.913185 138 143 140
2.45721 3.75823 14.776 0.0396833 -0.685429 -0.727058 136 142 140
2.69874 3.79263 14.8817 -0.0823381 -0.888137 -0.452142 109 112 109
2.73563 3.78821 14.8791 0.348663 -0.331913 -0.876509 108 112 109
2.83626 3.78705 14.9078 0.381262 -0.548906 -0.74387 129 132 129
2.93082 3.79899 14.9578 0.103523 -0.834587 -0.541061 172 175 171
3.04179 3.85138 15.0207 0.4955 -0.273908 -0.824291 218 220 215
3.05771 3.84278 15.0089 0.445777 -0.212853 -0.869469 216 217 213
3.13031 3.84442 15.0339 0.233167 -0.663964 -0.710482 211 213 208
4.31743 3.74132 14.6517 -0.139608 -0.955976 -0.258106 206 207 203
4.47505 3.75535 14.6894 -0.384525 -0.894808 -0.226848 200 201 195
4.47211 3.73365 14.6073 -0.359787 -0.904612 -0.228539 199 200 194
4.75519 3.69304 14.5409 -0.399599 -0.898208 -0.183146 177 179 171
4.81059 3.69227 14.469 -0.276301 -0.932696 -0.231809 154 156 148
4.97443 3.64221 14.3798 -0.220248 -0.953306 -0.206637 118 121 117
5.03531 3.68215 14.3942 -0.254892 -0.948809 -0.186523 146 150 145
5.1802 3.62006 14.2563 -0.956012 -0.281133 0.0836942 199 201 195
6.03788 3.62556 14.1884 0.266679 -0.711058 -0.650599 216 216 209
6.12167 3.60158 14.1728 -0.177676 -0.950939 -0.253271 207 207 200
0.464985 4.15758 16.0971 -0.0166329 -0.351003 -0.936227 140 147 145
0.387803 3.99177 15.4899 -0.595767 0.356389 -0.719756 113 119 118
1.04114 4.07076 15.7902 -0.798909 0.150221 -0.582389 159 172 170
1.03433 4.10509 15.8209 -0.918587 0.0631776 -0.390136 175 188 186
1.08977 4.05934 15.7305 -0.504058 0.177049 -0.845328 176 186 185
1.14978 4.00323 15.5671 -0.522457 0.0561851 -0.850813 109 119 116
1.21018 4.01373 15.5121 -0.807386 0.111648 -0.579365 196 205 202
1.28063 3.96206 15.3978 -0.846602 -0.103907 -0.521985 157 169 165
1.30904 3.9223 15.248 -0.720627 0.265115 -0.640633 93 102 99
1.41942 3.8758 15.0752 -0.658583 -0.482263 -0.57766 188 201 195
1.11657 3.60422 14.0705 0.169493 -0.90858 -0.381777 189 198 192
1.48157 3.8117 14.8098 -0.764332 -0.394486 -0.510075 209 222 218
1.55424 3.79554 14.7177 0.102699 -0.870761 -0.480863 210 222 218
1.65007 3.76562 14.6721 -0.715192 -0.224754 -0.661806 199 208 204
1.67159 3.75803 14.661 -0.685363 -0.40782 -0.603291 189 197 193
1.73415 3.74619 14.6141 -0.438 -0.787566 -0.433469 125 130 126
1.75673 3.75848 14.5638 -0.533714 -0.783525 -0.318179 155 162 159
1.78549 3.73474 14.5288 -0.661733 -0.663361 -0.349373 99 103 100
1.8768 3.747 14.5317 0.505364 -0.259021 -0.823113 102 107 109
1.98116 3.73731 14.5663 0.210598 -0.338374 -0.917143 119 124 122
2.25575 3.77348 14.7223 0.318401 -0.136811 -0.938032 144 149 146
2.25559 3.79275 14.6852 0.28872 -0.19342 -0.937672 133 137 135
2.3331 3.78045 14.7346 0.51838 0.0342172 -0.854466 136 141 138
2.34028 3.76604 14.6963 0.316346 -0.453987 -0.832959 136 141 139
2.40683 3.78346 14.6915 0.444705 0.277544 -0.851591 132 136 133
2.50743 3.79945 14.7794 0.339436 -0.80712 -0.483054 120 124 121
2.52995 3.78815 14.7834 0.558235 -0.40391 -0.724728 124 127 125
2.5818 3.81765 14.8009 0.257109 -0.819011 -0.512949 125 127 123
2.64977 3.80754 14.8553 0.178986 -0.89786 -0.402258 108 111 107
2.70162 3.81934 14.8393 0.00930947 -0.916976 -0.398833 164 167 163
2.74983 3.8316 14.8157 0.00904167 -0.953181 -0.302264 215 216 212
2.83195 3.83725 14.8533 0.449914 -0.474212 -0.75677 206 208 204
2.96713 3.84565 14.8891 0.149602 -0.801307 -0.579246 206 208 204
3.04784 3.87511 14.9894 -0.965843 0.140525 -0.217713 198 200 195
3.20625 3.8314 14.9394 -0.317941 -0.913064 -0.255397 201 203 198
3.19004 3.80544 14.8313 -0.585981 -0.785212 -0.200171 202 203 198
3.24336 3.7952 14.7378 0.0324717 -0.892455 -0.449967 208 209 204
3.30269 3.79212 14.7162 0.112677 -0.823079 -0.556638 210 212 207
3.26882 3.80251 14.6998 0.0469908 -0.881691 -0.469482 210 211 206
3.32212 3.79711 14.6885 0.145007 -0.7837 -0.603977 214 215 210
3.35507 3.78467 14.6914 0.23478 -0.295396 -0.926077 213 214 210
3.42825 3.7586 14.6177 -0.0738134 -0.423637 -0.90282 207 209 205
4.32636 3.75744 14.6214 -0.454246 -0.622031 -0.63776 202 203 199
4.41561 3.75127 14.5782 -0.142848 -0.956226 -0.255396 185 186 181
4.74356 3.73378 14.5448 -0.856242 -0.334579 -0.393581 203 204 197
4.75667 3.70652 14.471 -0.600947 -0.78597 -0.145307 196 197 190
4.76912 3.69107 14.4118 -0.794388 -0.502593 -0.341098 165 167 160
4.80214 3.68444 14.3939 -0.621114 -0.716224 -0.318183 145 146 140
4.96912 3.71387 14.3758 0.155038 -0.384473 -0.910024 101 103 98
5.10363 3.64572 14.2584 -0.962968 -0.268356 -0.0260343 199 203 197
5.11756 3.64852 14.184 -0.964055 -0.252617 -0.0823554 198 200 194
6.04441 3.65143 14.1713 0.231364 -0.726612 -0.64692 206 206 201
6.05583 3.66205 14.2249 0.0136152 -0.818374 -0.574525 214 215 209
6.09482 3.62533 14.1696 -0.0181115 -0.826016 -0.563356 203 204 197
6.05494 3.64813 14.1601 0.235985 -0.677898 -0.696251 217 217 210
6.11777 3.62821 14.1047 -0.0940599 -0.908541 -0.40707 207 208 201
1.04675 4.10686 15.7796 -0.809775 -0.0066916 -0.586703 146 158 156
1.06507 4.12548 15.747 -0.798561 -0.0204637 -0.601565 129 141 139
1.14691 4.03813 15.5578 -0.495745 0.113611 -0.861005 111 121 117
0.978392 3.61612 14.0449 -0.120618 -0.964264 -0.235894 148 156 153
1.12134 3.6246 13.9597 -0.862589 -0.468647 -0.190554 190 197 192
1.51897 3.82984 14.704 -0.0673774 -0.953376 -0.294169 193 205 201
1.64097 3.81977 14.7119 -0.661129 -0.190563 -0.725668 185 197 192
1.72888 3.76432 14.5643 -0.667368 -0.655635 -0.353218 188 197 192
1.77237 3.75388 14.4799 -0.632046 -0.675956 -0.378949 151 159 155
1.81841 3.73934 14.4238 -0.0443609 -0.958191 -0.282669 139 145 143
1.93181 3.77902 14.5283 0.459818 -0.70555 -0.539229 154 160 160
1.97675 3.75696 14.5357 0.298426 -0.215901 -0.929693 151 157 156
2.1441 3.78456 14.6089 -0.0274337 -0.95512 -0.294946 134 139 138
2.22202 3.82358 14.6516 0.387477 -0.545984 -0.742808 126 129 126
2.28039 3.8203 14.6743 0.523621 -0.542996 -0.656488 126 129 126
2.34196 3.83021 14.7259 0.130371 -0.892242 -0.432328 119 121 117
2.45654 3.81701 14.7193 0.415299 -0.711988 -0.566216 110 113 109
2.54891 3.82399 14.7751 0.253634 -0.866657 -0.429623 130 132 128
2.55069 3.84957 14.7397 0.00283515 -0.88258 -0.470155 208 209 203
2.54545 3.84943 14.7373 -0.0274569 -0.878787 -0.476423 208 208 202
2.65407 3.85631 14.7845 0.111721 -0.850241 -0.514402 210 211 205
2.72542 3.87763 14.8454 0.00279531 -0.852207 -0.523198 208 209 203
2.74769 3.87734 14.854 -0.156879 -0.844362 -0.512292 218 219 214
2.97297 3.84502 14.8481 0.426136 -0.634621 -0.64472 216 219 215
2.9696 3.84556 14.8484 0.413611 -0.610212 -0.675697 213 216 211
2.95067 3.83123 14.6869 -0.069534 -0.94217 -0.327842 200 201 197
3.07177 3.85008 14.7629 -0.0427121 -0.941154 -0.335269 203 204 199
3.24999 3.82091 14.7008 -0.108128 -0.889378 -0.444201 206 208 203
3.28366 3.8101 14.6593 0.10517 -0.831643 -0.545261 211 213 208
3.25571 3.82272 14.6489 -0.0115719 -0.918253 -0.395826 210 212 207
3.29946 3.81658 14.6385 0.231079 -0.609276 -0.758541 208 210 205
3.35115 3.81046 14.6504 -0.00454518 -0.807571 -0.589753 210 212 206
3.3594 3.81163 14.6045 -0.163354 -0.69511 -0.700098 204 206 201
3.40309 3.79544 14.6229 -0.402974 -0.663598 -0.630278 208 210 205
3.50849 3.78369 14.6018 0.0409518 -0.606825 -0.79378 205 207 202
3.71484 3.77733 14.4772 -0.511074 -0.818941 -0.261034 200 203 199
3.81377 3.68705 14.1724 -0.857292 0.452325 -0.245871 198 201 196
4.36324 3.77691 14.5465 -0.423982 -0.858329 -0.288982 197 198 194
4.41386 3.76652 14.4931 -0.759978 -0.649334 0.0282615 191 192 186
4.75913 3.71818 14.3797 -0.733661 -0.645525 -0.212223 161 162 154
4.8492 3.73875 14.3224 -0.689 -0.704053 -0.17201 144 145 141
4.99836 3.74467 14.364 0.10639 -0.86932 -0.482663 195 196 189
5.20895 3.68951 14.1518 -0.882885 -0.0203184 -0.469149 189 191 185
5.12112 3.61728 13.9508 -0.996365 0.0838129 0.0152307 196 199 193
6.0497 3.66325 14.1697 0.257961 -0.585482 -0.768548 206 206 200
6.03204 3.68233 14.1252 0.201683 -0.389194 -0.898806 212 213 206
5.99167 3.66207 14.1252 0.15284 -0.332778 -0.930537 217 218 210
6.06095 3.65417 14.1135 0.0485761 -0.514524 -0.856099 209 209 203
6.02487 3.6623 14.0437 0.0590227 -0.390572 -0.918679 211 212 205
6.09671 3.63792 14.0181 0.175659 -0.625739 -0.759997 199 200 195
1.30845 4.01485 15.3059 -0.767233 0.219222 -0.60274 113 117 114
0.920744 3.64885 13.9416 -0.151704 -0.942617 -0.297422 178 185 182
0.928652 3.63163 13.8641 -0.190396 -0.91547 -0.35449 181 186 184
1.10989 3.60475 13.7815 -0.337848 -0.884815 -0.320876 189 197 193
1.20071 3.61596 13.8025 0.14899 -0.923419 -0.353695 188 197 193
1.70309 3.82304 14.5488 -0.870288 -0.485069 -0.0854803 200 210 206
1.7586 3.77456 14.4315 -0.545808 -0.772017 -0.325706 178 187 183
1.97479 3.79471 14.5402 0.254618 -0.687749 -0.679832 138 144 142
2.10155 3.80788 14.5684 0.148871 -0.213295 -0.965579 139 144 142
2.23459 3.84747 14.6393 0.385462 -0.536891 -0.750445 108 111 107
2.26562 3.84667 14.6503 0.370362 -0.35607 -0.857932 111 113 109
2.36841 3.85345 14.7051 0.310386 -0.491636 -0.813606 136 138 132
2.40553 3.85106 14.7107 0.25627 -0.660426 -0.705807 145 146 140
2.42025 3.86198 14.6626 0.0557608 -0.947194 -0.315775 213 214 207
2.50291 3.86249 14.7152 0.114379 -0.851755 -0.511303 211 211 204
2.4746 3.84852 14.7265 0.174152 -0.790344 -0.58739 183 184 178
2.55599 3.86826 14.6756 -0.0565167 -0.945898 -0.319504 216 216 209
2.55385 3.86537 14.6623 -0.0584799 -0.959986 -0.273873 212 212 205
2.68597 3.88269 14.8028 0.0363327 -0.904536 -0.424848 212 212 205
2.88269 3.88068 14.7455 -0.371998 -0.891819 -0.257441 196 197 192
2.86102 3.8051 14.4638 -0.0864975 -0.949832 -0.300563 203 205 199
2.94653 3.82055 14.5879 -0.0182095 0.661803 -0.749457 210 213 208
3.16533 3.8382 14.6362 -0.411689 -0.903702 -0.117623 201 202 198
3.27856 3.83479 14.6462 0.223434 -0.572027 -0.789216 207 210 204
3.26095 3.84617 14.6412 0.24654 -0.58714 -0.771028 203 205 200
3.30678 3.82259 14.6274 0.246364 -0.577603 -0.778254 208 209 204
3.31837 3.8287 14.5886 0.235218 -0.608138 -0.758182 203 205 200
3.46917 3.81965 14.5241 -0.297685 -0.747411 -0.593937 201 203 198
3.5096 3.83177 14.5264 0.212278 -0.651569 -0.728283 204 206 201
3.58427 3.71984 14.1391 0.0733086 -0.688392 -0.721625 213 216 212
3.96055 3.79331 14.401 -0.0620329 -0.957895 -0.280338 225 227 222
4.07052 3.73292 14.1795 -0.844341 -0.534385 0.0390151 199 201 197
4.37017 3.80752 14.4796 -0.870482 -0.489977 0.0467229 199 200 195
4.41419 3.75648 14.356 -0.181701 -0.953619 -0.239991 197 198 193
4.76046 3.78146 14.3886 -0.722032 -0.295358 -0.625646 199 200 193
4.87028 3.77131 14.3065 -0.418058 -0.880915 -0.221847 194 194 189
4.8525 3.76511 14.3116 -0.691309 -0.715517 -0.100636 186 186 182
5.12039 3.75701 14.257 -0.868342 -0.164273 -0.467971 158 160 153
5.14189 3.73862 14.2169 -0.792776 -0.40424 -0.456175 143 145 138
5.22746 3.70373 14.1142 -0.736565 0.101247 -0.668746 179 182 176
5.24634 3.68404 14.0898 -0.83277 0.113021 -0.541959 196 200 194
5.28334 3.66995 14.0069 -0.844381 0.0568928 -0.532713 197 200 194
5.25022 3.62545 13.8389 -0.445785 0.722511 -0.528444 200 203 197
5.85979 3.69297 14.0204 -0.291145 -0.879059 -0.377478 210 211 205
5.97135 3.67683 14.0771 0.0435569 -0.261197 -0.964302 212 213 207
5.9381 3.68534 14.0095 -0.119511 -0.577658 -0.807483 215 216 209
6.04103 3.6771 14.0067 0.132965 -0.509999 -0.849836 216 217 209
6.07317 3.66609 14.0226 0.208535 -0.582327 -0.785754 212 213 206
0.883247 3.65123 13.9264 0.0872444 -0.945232 -0.314524 182 188 185
0.91728 3.63211 13.7768 0.330662 -0.818619 -0.469601 178 183 181
0.983958 3.62592 13.8099 0.36847 -0.761855 -0.532736 190 196 193
1.05657 3.61358 13.7403 -0.0533761 -0.953622 -0.296238 186 194 189
1.05657 3.61358 13.7403 -0.0533761 -0.953622 -0.296238 185 194 189
1.16069 3.61898 13.7661 0.120379 -0.895872 -0.427695 178 187 183
1.2744 3.61821 13.7465 -0.647163 -0.494346 -0.580346 184 195 191
1.86989 3.81029 14.4622 0.0699463 -0.89216 -0.446272 134 140 140
2.1185 3.87097 14.5567 0.329422 -0.410277 -0.850385 125 128 125
2.17716 3.85482 14.6152 0.308778 -0.534148 -0.786983 109 112 109
2.25927 3.87849 14.6475 0.33042 -0.304675 -0.893306 176 177 172
2.32598 3.8993 14.6593 0.310564 -0.500946 -0.807838 208 208 201
2.39664 3.88064 14.6647 0.181627 -0.785252 -0.591938 208 208 201
2.3852 3.89211 14.63 -0.0455472 -0.961866 -0.2697 213 213 204
2.50314 3.87837 14.6353 -0.0801582 -0.957046 -0.278636 210 209 201
2.71188 3.91956 14.8025 0.309687 -0.695478 -0.648386 211 211 203
2.70132 3.83587 14.4822 -0.268132 -0.928348 -0.257438 201 201 196
2.77888 3.84328 14.5001 -0.326605 -0.90568 -0.270321 204 204 198
2.87169 3.83073 14.4306 0.156321 -0.703391 -0.693401 204 206 201
2.94944 3.8433 14.5016 0.251353 -0.394139 -0.884012 207 208 203
2.99277 3.84362 14.469 -0.199576 -0.889561 -0.410915 212 213 209
3.17788 3.86207 14.6067 -0.747078 -0.664383 -0.0216566 202 203 199
3.35328 3.8274 14.3848 0.024266 -0.89495 -0.445507 204 206 201
3.43889 3.82963 14.4649 0.122294 -0.902547 -0.412861 206 208 203
3.5891 3.83962 14.4257 -0.149097 -0.955968 -0.252777 193 196 192
3.48326 3.73375 14.0548 0.481437 -0.479267 -0.73384 210 213 209
3.44355 3.70738 13.962 0.531929 -0.0734614 -0.843596 219 221 216
3.58168 3.744 14.1065 0.188351 -0.660695 -0.72664 219 222 218
3.95124 3.80769 14.325 -0.0434055 -0.956294 -0.289168 227 229 225
4.78977 3.79515 14.3055 0.0543658 -0.799525 -0.598167 203 204 198
5.1027 3.77503 14.2918 -0.605821 -0.235999 -0.759793 186 188 181
5.14293 3.78457 14.2337 -0.942308 -0.156257 -0.296039 193 195 187
5.17057 3.75482 14.1894 -0.743077 0.157961 -0.650296 150 153 145
5.20714 3.76884 14.1614 -0.753341 0.364408 -0.547434 157 159 152
5.25925 3.71617 14.0675 -0.760049 0.120812 -0.638537 171 175 168
5.25115 3.71917 14.0808 -0.772224 0.154405 -0.616303 164 168 161
5.28946 3.71123 14.0397 -0.755971 -0.0519306 -0.652542 183 187 180
5.80073 3.75255 14.1824 -0.0427578 -0.930648 -0.36341 222 223 218
5.83071 3.7129 14.0156 -0.220143 -0.92137 -0.320334 219 220 213
5.9249 3.70732 14.0213 -0.238417 -0.609208 -0.756322 211 211 206
5.95638 3.70101 14.0119 0.397418 -0.488759 -0.776643 226 226 219
5.98552 3.70203 14.0238 0.301297 -0.404655 -0.863409 213 213 207
6.06762 3.7162 13.9695 0.0573742 -0.794008 -0.605194 200 202 196
0.772972 3.65524 13.8161 -0.0847666 -0.900722 -0.426045 180 186 183
0.771576 3.65225 13.8111 -0.0993368 -0.893165 -0.438621 179 185 182
0.830449 3.67201 13.8226 0.0132033 -0.931058 -0.364634 168 174 170
0.89218 3.63045 13.6364 -0.127271 -0.936844 -0.325769 183 190 187
1.06073 3.62908 13.6689 0.147176 -0.754204 -0.639934 148 156 154
1.12327 3.65372 13.7279 0.310792 -0.588019 -0.746754 132 141 138
1.80923 3.84685 14.4343 0.571232 -0.4891 -0.659148 144 150 149
2.05121 3.87086 14.5366 0.23651 -0.288585 -0.927783 106 109 105
2.0708 3.8991 14.5305 0.242169 -0.550315 -0.799067 187 189 183
2.10495 3.8992 14.5412 0.268267 -0.563711 -0.781193 198 199 194
2.15656 3.90878 14.5855 0.506694 -0.140285 -0.850636 200 202 197
2.23661 3.89795 14.6212 0.307375 -0.515665 -0.799756 206 207 202
2.28122 3.90465 14.6364 0.316672 -0.474602 -0.821263 212 212 206
2.31075 3.92506 14.6354 0.310831 -0.502604 -0.806705 214 215 208
2.35502 3.9294 14.6601 0.31617 -0.466299 -0.826198 211 212 204
2.78005 3.8611 14.4446 -0.00626838 -0.948534 -0.316614 207 208 202
2.81154 3.84729 14.4173 0.325312 -0.771414 -0.546894 207 207 202
2.86929 3.85881 14.3966 0.350534 -0.741561 -0.572025 206 207 202
3.0404 3.84697 14.4414 -0.111976 -0.955185 -0.274012 205 206 202
3.1577 3.88237 14.5255 -0.85205 -0.523384 -0.00898787 200 202 197
3.22527 3.83917 14.3113 -0.223493 -0.923368 -0.312158 207 209 204
3.3049 3.84152 14.3707 -0.0175778 -0.953812 -0.299889 207 208 204
3.43392 3.72371 14.0011 0.483692 -0.474819 -0.735247 216 219 214
3.4615 3.74931 13.9758 0.481274 -0.558038 -0.675994 213 215 211
3.93382 3.83965 14.3044 -0.0999115 -0.950171 -0.295284 216 219 214
4.23281 3.80928 14.244 -0.0694682 -0.950983 -0.30134 224 226 221
4.27626 3.81079 14.2004 -0.0637916 -0.951682 -0.300386 227 229 223
4.83718 3.82157 14.2469 0.124303 -0.657706 -0.742948 202 203 197
5.1166 3.8268 14.2683 -0.698806 0.504114 -0.507484 202 203 195
5.1871 3.80607 14.2112 -0.840508 0.321738 -0.435926 201 202 195
5.20543 3.81046 14.1617 -0.709542 0.423203 -0.563426 202 203 196
5.21904 3.78877 14.1241 -0.885051 -0.0402705 -0.463749 184 186 178
5.2327 3.76353 14.1044 -0.849419 -0.125037 -0.512693 147 150 142
5.27576 3.7747 14.0324 -0.815483 0.0673142 -0.574854 150 154 146
5.31456 3.71265 13.8593 -0.732571 0.535643 -0.42003 170 174 168
5.39061 3.68323 13.783 -0.97683 -0.196584 -0.0846 199 202 197
5.78612 3.71145 13.9161 0.0441769 -0.889506 -0.454783 209 210 204
6.1182 3.5668 13.3788 -0.535119 -0.555866 -0.63613 225 226 222
6.18639 3.56643 13.3476 0.266551 -0.604059 -0.751041 231 233 231
0.722007 3.64153 13.6502 0.150473 -0.912248 -0.381 180 187 182
0.796361 3.63924 13.6297 -0.0428296 -0.849177 -0.52637 180 187 184
0.794843 3.63667 13.6269 -0.0417202 -0.827731 -0.559572 183 189 187
0.811478 3.62307 13.5742 0.11511 -0.438045 -0.891553 183 190 188
0.914239 3.65231 13.5779 0.0784744 -0.944457 -0.319127 135 143 141
1.01499 3.64146 13.6445 -0.0423694 -0.910821 -0.410621 140 148 145
1.12704 3.66316 13.6936 0.498348 -0.571726 -0.651751 131 140 137
1.18592 3.68852 13.7462 0.472883 -0.687625 -0.550956 130 139 137
1.83594 3.86949 14.4134 0.483905 -0.208462 -0.849929 113 117 114
2.10432 3.93139 14.5293 0.333755 -0.347867 -0.876126 223 224 219
2.13628 3.91522 14.5237 0.181349 -0.797065 -0.576021 212 212 206
2.23655 3.92918 14.6053 0.309735 -0.519623 -0.796276 216 216 209
2.26647 3.94476 14.586 0.186449 -0.787485 -0.587456 207 207 199
2.32533 3.94945 14.6206 0.303784 -0.532716 -0.789892 203 203 196
2.84019 3.86713 14.3861 0.333212 -0.762484 -0.554606 207 208 203
2.77152 3.8416 14.2149 -0.0903791 -0.94981 -0.299487 210 212 204
3.2193 3.85009 14.2189 -0.184546 -0.95005 -0.25169 204 205 201
3.28658 3.8358 14.2697 -0.146311 -0.957637 -0.248041 201 202 198
3.47266 3.76809 13.98 0.500024 0.0513783 -0.864486 211 214 209
4.21355 3.79166 14.044 -0.0187404 -0.755397 -0.654999 197 199 195
4.22597 3.79756 13.997 -0.0100695 -0.766047 -0.642706 194 196 191
5.1542 3.84667 14.2629 -0.758228 0.444374 -0.477099 202 204 196
5.20448 3.84202 14.1938 -0.876569 -0.479692 -0.0390298 202 203 196
5.22456 3.83342 14.1345 -0.920778 -0.190773 -0.340257 205 206 199
5.23518 3.81053 14.0918 -0.920623 0.0143019 -0.39019 199 202 193
5.30131 3.80522 14.0236 -0.667361 0.234252 -0.706933 187 190 181
5.33757 3.74625 13.8903 -0.87591 -0.447507 -0.18033 140 144 137
5.37929 3.74824 13.8355 -0.950786 -0.122628 -0.284548 148 152 146
5.35762 3.69292 13.7286 -0.527017 0.680527 -0.509054 194 197 192
5.37889 3.67262 13.5608 -0.217289 0.687321 -0.693091 201 204 199
5.46388 3.67508 13.5423 -0.969251 -0.216181 0.117555 195 198 192
5.82414 3.57489 13.2102 0.330584 -0.55418 -0.763937 231 234 229
5.82414 3.57489 13.2102 0.330584 -0.55418 -0.763937 231 234 229
5.85514 3.56977 13.2297 0.325116 -0.567701 -0.756317 232 236 231
5.86591 3.55748 13.2272 0.342818 -0.593922 -0.727828 232 234 229
6.10349 3.59012 13.3241 0.116848 -0.853239 -0.508262 233 237 234
6.17446 3.59922 13.3483 0.250315 -0.664145 -0.704453 216 221 219
6.14723 3.59951 13.3344 0.182836 -0.780704 -0.597555 220 225 222
6.12928 3.60825 13.3222 0.198515 -0.775906 -0.5988 208 213 210
6.21243 3.58905 13.35 0.381019 -0.220295 -0.897939 223 227 225
6.19821 3.61766 13.3488 0.301621 -0.602834 -0.738658 156 162 160
-0.0235581 4.0033 14.7126 -0.74285 0.139 -0.654869 184 194 192
0.0252983 3.98995 14.6508 -0.706054 0.072186 -0.704469 188 200 197
0.0986214 3.93789 14.4919 0.39066 0.425914 -0.816077 192 204 201
0.672764 3.638 13.4773 -0.254077 -0.401218 -0.880039 195 205 201
0.72324 3.6316 13.4858 0.560854 -0.347048 -0.751665 190 199 195
0.805873 3.65005 13.5365 0.227388 -0.54647 -0.806018 153 161 159
0.849212 3.6531 13.5687 0.0582114 -0.604903 -0.794169 149 157 155
0.927561 3.67316 13.5613 0.285887 -0.864817 -0.412748 123 131 129
1.95676 3.9245 14.4173 -0.132063 -0.928513 -0.347021 213 212 207
2.13751 3.83064 14.1518 -0.790969 0.335655 -0.511569 201 200 194
2.85232 3.89041 14.2658 -0.0291977 -0.959369 -0.28064 220 220 212
3.16603 3.86655 14.129 0.348697 -0.778343 -0.522103 213 215 210
3.17322 3.87479 14.1751 0.122195 -0.921332 -0.369074 219 221 216
3.27498 3.84732 14.0619 -0.471694 -0.779737 -0.411722 203 205 201
3.7061 3.81721 14.06 -0.0984135 -0.963122 -0.250423 196 199 195
3.83231 3.83827 14.1197 -0.105343 -0.930299 -0.351349 189 193 188
4.08085 3.80752 13.9267 -0.208304 -0.959257 -0.19088 191 193 189
4.11547 3.80526 13.8888 -0.173752 -0.956468 -0.234475 191 193 189
4.20452 3.80126 13.9797 -0.0904445 -0.937948 -0.334774 199 200 195
4.23222 3.81395 13.9206 0.109234 -0.702903 -0.702847 193 194 189
5.35639 3.7968 13.9227 -0.892486 -0.106531 -0.438314 163 166 159
5.36389 3.77034 13.7601 -0.897079 -0.087469 -0.433127 144 147 140
5.83443 3.60092 13.1912 0.343581 -0.512714 -0.786814 230 234 229
5.8264 3.61483 13.197 0.32751 -0.593618 -0.735089 232 236 232
5.87153 3.60458 13.214 0.35509 -0.462238 -0.812555 229 234 231
5.88491 3.61005 13.2038 0.339414 -0.521864 -0.782596 228 235 232
6.01819 3.62449 13.3389 -0.139668 -0.954777 -0.262476 234 238 233
5.87318 3.58853 13.172 0.220363 -0.512868 -0.829703 226 230 226
6.0594 3.63241 13.3113 -0.0966989 -0.949289 -0.299164 193 199 194
6.09821 3.61687 13.3124 0.035563 -0.794596 -0.606096 191 196 193
6.14832 3.62966 13.3144 0.346501 -0.457248 -0.819061 141 148 145
6.12097 3.63005 13.3039 0.201719 -0.506432 -0.838353 139 145 142
6.09963 3.63561 13.2812 0.248151 -0.573697 -0.780572 131 138 135
6.17394 3.6234 13.3306 0.282728 -0.645699 -0.709322 148 154 152
0.018881 4.01329 14.6276 -0.555891 0.36568 -0.7465 162 174 171
0.0168517 4.01706 14.6413 -0.593009 0.316265 -0.740485 160 172 169
0.0788383 3.98568 14.5432 -0.428778 -0.0837782 -0.899517 192 204 201
0.652569 3.6698 13.4901 -0.611752 0.0500702 -0.789463 188 199 194
0.692616 3.68349 13.4646 -0.0790405 -0.113968 -0.990335 154 165 161
0.726012 3.68457 13.4674 -0.0319886 -0.22488 -0.973861 115 125 123
0.742499 3.65804 13.4806 0.390851 -0.31334 -0.865479 142 151 148
1.08948 3.74769 13.6716 0.625712 0.00333799 -0.780047 126 135 134
1.13974 3.74092 13.6577 0.534946 -0.636678 -0.555405 123 132 131
1.7983 3.94321 14.4056 0.592967 0.0523728 -0.803521 205 205 198
1.88788 3.97418 14.4544 0.550761 -0.050634 -0.833126 220 221 215
2.55063 3.89402 14.1123 -0.0959297 -0.954826 -0.281257 213 213 204
2.57509 3.86343 14.1071 0.0347905 -0.940042 -0.33928 211 211 201
2.66015 3.89373 14.1079 0.0423647 -0.938855 -0.341698 212 212 202
2.76353 3.87289 14.1431 0.482971 -0.356018 -0.799994 220 220 212
3.12866 3.87632 14.0649 0.240977 -0.86409 -0.441903 219 220 215
3.1627 3.87163 14.0808 0.380037 -0.745657 -0.547328 213 214 209
3.25624 3.85923 13.9869 -0.11924 -0.956202 -0.267319 195 197 192
3.28842 3.82928 13.9922 -0.120765 -0.955377 -0.269575 200 202 198
3.65746 3.84049 13.9676 -0.319764 -0.820693 -0.473512 195 198 194
3.7324 3.875 14.0327 0.082244 -0.931224 -0.355047 222 225 221
3.68942 3.82989 13.8586 0.463674 -0.576552 -0.672751 226 229 225
3.83089 3.85178 14.0398 -0.0960585 -0.962084 -0.255278 195 199 194
4.10587 3.82052 13.825 -0.0175169 -0.455627 -0.889999 201 203 198
4.12498 3.8155 13.8111 -0.0734282 -0.25924 -0.963018 212 214 209
4.32205 3.86259 13.9991 0.0233031 -0.825404 -0.564062 218 219 213
4.40091 3.86593 13.9982 0.067607 -0.568011 -0.820239 217 217 212
5.37782 3.84721 13.8678 -0.607403 -0.461245 -0.646773 201 203 196
5.36072 3.79655 13.8148 -0.711164 -0.449932 -0.540192 171 174 166
5.38438 3.77108 13.7099 -0.947117 -0.0749012 -0.312025 136 139 132
5.43383 3.76203 13.6378 -0.497556 0.242549 -0.832831 134 138 131
5.49362 3.74913 13.5634 -0.0858345 0.614623 -0.784137 157 162 154
5.49965 3.73519 13.5007 -0.859068 0.425511 -0.284505 169 174 166
5.44656 3.66778 13.2947 -0.928633 0.348637 -0.126853 197 200 194
5.83578 3.63446 13.1801 0.309162 -0.589469 -0.746287 226 231 227
5.79987 3.62049 13.1784 0.292004 -0.697963 -0.653897 237 241 237
5.88007 3.62333 13.1964 0.359381 -0.437605 -0.824225 224 230 227
5.85218 3.64881 13.1796 0.291689 -0.474734 -0.830388 191 197 194
5.88105 3.64941 13.1923 0.337717 -0.422762 -0.840963 180 187 184
5.88007 3.62333 13.1964 0.359381 -0.437605 -0.824225 224 230 227
6.06146 3.6502 13.2721 0.0932068 -0.873426 -0.477953 133 141 138
6.09278 3.66783 13.2828 0.178733 -0.801593 -0.570528 131 141 138
6.20541 3.66466 13.3314 0.372729 -0.298084 -0.87876 132 142 141
0.0596082 4.04068 14.5726 -0.738527 0.154245 -0.656343 100 112 109
0.112204 3.9934 14.5182 -0.697536 -0.0277912 -0.716011 188 201 197
0.601089 3.73872 13.5953 0.24131 0.505136 -0.828618 191 203 200
0.624142 3.72124 13.5425 0.102926 0.333448 -0.937133 184 197 194
0.701615 3.69605 13.4675 -0.157313 -0.13572 -0.978178 133 144 141
0.860422 3.70979 13.512 -0.244104 -0.678919 -0.692447 145 153 153
1.0569 3.76419 13.673 0.619008 0.0452173 -0.784082 122 132 132
1.0058 3.72072 13.5756 0.607249 0.0833168 -0.790131 123 132 131
1.69453 3.9821 14.3547 0.531698 -0.083309 -0.842827 207 209 203
1.76518 3.97657 14.359 0.341514 0.0311632 -0.93936 212 213 207
1.80978 3.9714 14.377 0.306109 -0.536456 -0.786455 213 214 208
1.84012 4.00243 14.432 0.534728 0.187944 -0.823859 215 214 207
2.73946 3.9117 14.1433 0.471447 -0.207149 -0.857221 222 221 212
2.91925 3.84978 13.9403 -0.888729 -0.458414 -0.004208 205 205 199
2.9548 3.82829 13.7633 0.384335 -0.712333 -0.587255 220 221 214
3.13799 3.88344 13.9799 0.286065 -0.83346 -0.47277 233 234 229
3.09422 3.83891 13.8493 0.027024 -0.95124 -0.307267 217 218 212
3.2771 3.88841 13.9598 0.212359 -0.867983 -0.448897 204 206 201
3.46379 3.87193 13.924 -0.123887 -0.956024 -0.265837 191 193 189
3.9133 3.84114 13.8105 -0.818473 -0.506817 -0.270626 194 196 191
4.03079 3.83703 13.7885 -0.542735 -0.780893 -0.309266 199 201 196
4.03838 3.84291 13.8037 -0.0403101 -0.828177 -0.559016 202 203 198
4.10456 3.84971 13.803 0.117284 -0.572713 -0.811323 221 222 218
4.38277 3.8842 14.0054 0.180548 -0.574009 -0.798696 223 223 218
4.37085 3.88094 13.9972 0.0607972 -0.784697 -0.616891 222 223 217
4.37087 3.88951 13.9647 0.201938 -0.669361 -0.714967 224 225 219
4.63171 3.85449 13.7901 0.0116795 -0.112131 -0.993625 201 202 196
4.70785 3.84268 13.7792 -0.101424 -0.216635 -0.97097 206 207 200
5.39686 3.81638 13.6826 -0.794755 -0.00297248 -0.606923 190 191 184
5.45599 3.79797 13.6332 -0.429705 0.0337333 -0.902339 156 160 152
5.48175 3.79812 13.6067 -0.0502637 0.310868 -0.949123 149 154 145
5.52476 3.756 13.4908 -0.895408 -0.0264615 -0.44446 151 156 148
5.5318 3.71965 13.4018 -0.664008 0.657364 -0.356322 191 195 188
6.02511 3.679 13.2299 -0.0229135 -0.932132 -0.361394 130 140 138
0.0274533 4.08071 14.6323 -0.734543 -0.34091 -0.586708 81 91 88
0.113301 4.03524 14.5283 -0.800219 0.216881 -0.559118 183 197 194
0.59635 3.78611 13.6753 -0.483469 0.440003 -0.75674 166 179 176
0.626834 3.81082 13.6679 -0.843614 -0.276706 -0.460163 114 126 123
0.648011 3.73843 13.5264 -0.767653 0.082152 -0.635578 184 196 193
0.683306 3.7285 13.48 -0.573148 0.167879 -0.802071 179 192 189
0.723049 3.75077 13.4641 -0.155011 0.104334 -0.982388 116 128 127
0.750763 3.72834 13.4243 -0.451707 -0.0318822 -0.891596 160 170 169
1.51848 3.96359 14.2422 0.474957 -0.711957 -0.517237 194 195 190
2.58722 3.91232 14.0289 0.0644615 -0.810373 -0.582358 219 219 210
2.81201 3.87532 13.7969 0.429667 -0.613552 -0.662526 209 210 204
2.90001 3.8627 13.7747 0.134118 -0.710183 -0.691124 206 207 202
2.96608 3.86339 13.7773 0.139759 -0.78848 -0.598971 217 218 213
3.21774 3.90527 13.9378 0.424204 -0.621492 -0.658634 226 228 223
3.28081 3.91132 13.9259 -0.37473 -0.854281 -0.360253 198 201 196
3.30704 3.89801 13.8703 -0.408682 -0.841092 -0.35432 194 195 191
3.31226 3.87595 13.7987 -0.0862359 -0.964558 -0.249383 200 201 197
3.79878 3.86356 13.7203 -0.39457 -0.662705 -0.636503 207 209 204
4.3701 3.91865 13.9714 0.157615 -0.487602 -0.858721 227 227 222
4.37297 3.91316 13.94 0.392063 -0.665683 -0.634943 231 231 225
4.63789 3.87669 13.7716 0.127622 -0.239539 -0.962462 209 210 204
4.65373 3.86968 13.7494 0.00438645 -0.219916 -0.975509 214 215 209
4.81742 3.85584 13.6845 -0.685673 0.503388 -0.525788 202 203 198
4.87272 3.85578 13.6491 -0.232715 0.551329 -0.801174 204 205 200
5.43078 3.83008 13.6337 -0.214041 0.223214 -0.95098 199 202 194
5.4907 3.83067 13.5943 -0.512938 0.327461 -0.793513 185 190 180
5.54357 3.83663 13.5748 -0.75544 0.286594 -0.589214 181 185 176
5.56324 3.80527 13.464 -0.950183 0.305125 -0.063646 142 147 140
5.57421 3.75863 13.3986 -0.934927 0.342239 -0.0937248 153 158 151
5.94794 3.73513 13.2238 -0.995699 0.0660313 -0.0649914 95 103 104
0.0686523 4.07865 14.5767 -0.736022 0.160158 -0.65774 80 86 84
0.103944 4.08903 14.5484 -0.671226 -0.0142687 -0.741115 184 195 192
0.154104 4.04144 14.4331 -0.79217 -0.0185937 -0.610017 181 194 192
0.177581 4.06452 14.4263 -0.586275 -0.0855219 -0.805585 184 196 194
0.226234 4.01644 14.3458 -0.899052 -0.191782 -0.393607 188 199 197
0.269778 4.02283 14.2705 -0.580563 -0.598035 -0.55254 190 202 198
0.473949 3.89568 13.8461 -0.570286 0.147101 -0.808168 184 195 190
0.488896 3.861 13.8022 -0.642454 0.177219 -0.745551 187 198 193
0.539427 3.85302 13.6959 -0.0180466 -0.0974405 -0.995078 186 198 194
0.567528 3.8496 13.6834 -0.104309 0.0273972 -0.994168 183 195 193
0.626226 3.81816 13.6527 -0.859754 0.0845951 -0.503653 80 91 89
0.635926 3.83159 13.6442 -0.854845 -0.112335 -0.506578 52 63 60
0.677366 3.78961 13.5803 -0.857078 -0.111882 -0.502891 181 194 191
0.675302 3.7899 13.5821 -0.925306 -0.043813 -0.376681 180 192 189
0.706209 3.78049 13.466 -0.714522 0.195782 -0.67166 135 147 144
0.883299 3.80404 13.5374 0.339039 0.408966 -0.847231 96 105 105
2.58247 3.93456 13.9868 0.313092 -0.740414 -0.594778 219 219 212
2.81387 3.8987 13.7853 0.204284 -0.495815 -0.844059 208 209 203
2.84151 3.89678 13.7883 0.0736443 -0.682026 -0.72761 204 204 199
2.90498 3.8668 13.7382 -0.0151632 -0.630135 -0.776337 210 211 205
2.87256 3.88064 13.726 0.0510072 -0.50989 -0.858726 208 209 203
3.19336 3.91088 13.8266 -0.366551 -0.865156 -0.342266 201 202 198
3.66846 3.89475 13.7822 -0.336202 -0.0675815 -0.939362 211 212 207
3.72608 3.90731 13.7764 -0.48621 -0.571276 -0.661244 204 205 200
3.7948 3.87294 13.6937 -0.189931 -0.955057 -0.227581 201 202 197
4.37478 3.93631 13.9127 0.3798 -0.685601 -0.62105 228 228 222
4.63609 3.90884 13.7807 0.0387704 -0.919212 -0.39185 227 228 221
4.67684 3.91787 13.7538 -0.11821 -0.841293 -0.527497 222 222 216
4.91879 3.884 13.6567 -0.362649 0.665705 -0.652168 202 204 198
5.11342 3.82815 13.4578 -0.848597 -0.526748 -0.0491862 199 201 195
5.47581 3.87202 13.6255 0.00245684 0.235592 -0.971849 199 202 194
5.8174 3.74431 13.147 -0.989214 0.133533 0.0602052 89 96 97
0.106044 4.12752 14.5357 -0.912618 0.140638 -0.383862 183 194 190
0.149204 4.07447 14.4328 -0.801521 -0.0910893 -0.590987 183 196 194
0.225502 4.0349 14.3062 -0.811194 -0.413045 -0.413954 169 176 175
0.255188 4.03033 14.2885 -0.881625 0.136813 -0.451685 183 192 190
0.300023 4.03972 14.2076 -0.462326 0.326393 -0.824452 186 198 193
0.497767 3.89676 13.8061 -0.591781 0.0973117 -0.800203 179 191 186
0.606912 3.86511 13.7005 -0.193849 0.00204076 -0.981029 69 80 79
0.633334 3.86087 13.6373 -0.913181 -0.00252686 -0.407545 44 54 52
0.63978 3.8584 13.6369 -0.811396 -0.0379973 -0.58326 42 53 51
0.678288 3.8066 13.5235 -0.527115 0.47881 -0.702062 184 196 193
0.728836 3.82223 13.4928 -0.206557 0.0633909 -0.976379 120 131 129
0.764454 3.77856 13.4331 -0.0101279 0.0429224 -0.999027 103 113 112
0.898927 3.7782 13.3412 -0.734062 -0.673538 -0.0865957 120 129 130
1.83972 3.95879 13.9497 -0.405249 -0.10338 -0.908342 210 209 204
2.64817 3.88359 13.6815 0.38924 -0.692917 -0.606925 218 218 211
2.70672 3.89483 13.6896 -0.11935 -0.961573 -0.247251 207 207 202
2.76971 3.90194 13.7353 0.332956 -0.566735 -0.753625 216 217 210
2.8026 3.91248 13.7456 0.0252335 -0.648949 -0.760414 209 210 204
2.84389 3.9158 13.6838 0.18547 -0.721913 -0.666665 201 203 197
2.87373 3.90451 13.6946 0.510747 -0.549061 -0.661566 198 200 194
2.94123 3.88719 13.6716 0.239311 -0.553913 -0.79744 201 203 198
3.01395 3.9126 13.7056 -0.171557 -0.965611 -0.195355 196 198 194
3.1739 3.92039 13.7522 -0.16922 -0.964085 -0.204706 198 200 195
3.74061 3.89226 13.6584 -0.174518 -0.731581 -0.659039 202 203 198
3.77463 3.88283 13.5972 -0.676825 -0.698966 -0.230988 195 197 191
4.42318 3.81793 13.2924 -0.805099 -0.568852 -0.167996 200 200 196
4.70628 3.90782 13.6311 0.0404592 0.124786 -0.991358 198 198 193
5.05054 3.85339 13.3987 -0.72677 -0.163603 -0.667113 190 192 188
0.135356 4.15701 14.5384 -0.893683 0.193609 -0.40478 185 198 194
0.202159 4.13144 14.4082 -0.83808 -0.0536865 -0.5429 124 134 133
0.23478 4.09175 14.2868 -0.588211 0.104998 -0.801862 74 80 78
0.263043 4.08601 14.2558 -0.706293 0.232445 -0.668669 78 85 83
0.322299 4.05355 14.2303 -0.521038 0.0887077 -0.848912 184 195 190
0.330143 4.01528 14.1033 -0.723788 0.490029 -0.485801 185 197 194
0.472856 3.93565 13.8525 -0.647567 0.214112 -0.731309 186 198 194
0.461496 3.94635 13.825 -0.537636 0.121911 -0.834317 187 200 196
0.501389 3.92958 13.8018 -0.542528 0.112166 -0.832515 177 189 185
0.55993 3.91966 13.7621 -0.939244 -0.128101 -0.31845 180 192 189
0.550289 3.89238 13.7069 -0.33068 -0.170444 -0.928224 184 197 194
0.565891 3.9089 13.7223 -0.68697 0.0528479 -0.724762 184 197 194
0.579658 3.89066 13.6927 -0.686825 -0.0668669 -0.723741 152 164 162
0.614102 3.9133 13.6662 -0.811103 -0.271137 -0.518263 92 103 100
0.650039 3.88217 13.617 -0.853774 0.032398 -0.519635 36 46 44
0.694551 3.83822 13.5145 -0.786921 0.0354435 -0.616035 181 193 190
0.956562 3.87256 13.5884 0.500222 0.12788 -0.856402 115 123 125
1.45027 3.97177 13.8201 -0.19838 -0.904761 -0.3769 155 156 152
1.48152 3.95315 13.8461 -0.41292 -0.780572 -0.469259 199 200 194
1.51358 3.95266 13.8262 -0.398637 -0.700765 -0.591622 201 201 195
1.5433 3.96626 13.8424 -0.349585 -0.892748 -0.284239 192 193 187
2.63463 3.91024 13.6528 0.240078 -0.876318 -0.417648 215 215 209
2.85494 3.9498 13.6769 -0.578318 -0.45743 -0.675504 208 210 204
2.90713 3.92323 13.6872 0.184887 -0.714396 -0.674874 200 202 197
2.96791 3.91865 13.5687 0.0945357 -0.851336 -0.516032 210 212 206
2.97071 3.88996 13.5226 -0.232994 -0.921959 -0.309364 206 208 203
4.45034 3.76586 13.0598 -0.552833 -0.833278 0.0047774 200 201 196
4.67885 3.85601 13.3297 -0.112993 -0.889909 -0.441922 196 197 192
6.0623 3.89299 13.4144 -0.158965 -0.130265 -0.978653 128 141 145
0.151572 4.20784 14.5647 -0.847137 0.327853 -0.418177 182 194 191
0.144907 4.14138 14.4232 -0.897653 -0.291165 -0.330821 183 196 193
0.222864 4.1642 14.3899 -0.454438 -0.09187 -0.886028 144 150 148
0.227687 4.10356 14.2794 -0.0393144 0.157012 -0.986814 78 83 81
0.290341 4.09746 14.2316 -0.741924 0.160517 -0.650987 175 185 181
0.30848 4.03737 14.0418 -0.255859 0.684005 -0.683135 188 201 197
0.310861 4.03963 14.049 -0.271731 0.682864 -0.678129 188 201 197
0.416916 4.01454 13.9912 -0.230125 0.642611 -0.730817 187 202 197
0.416916 4.01454 13.9912 -0.230125 0.642611 -0.730817 187 202 197
0.428434 4.0111 13.9611 -0.135774 0.671705 -0.72827 187 201 196
0.503708 3.98822 13.8396 -0.739111 0.0264697 -0.673063 186 200 196
0.52234 3.97006 13.8168 -0.702876 -0.0322492 -0.710581 155 168 164
0.544479 3.98045 13.7968 -0.645295 0.011622 -0.763845 140 153 150
0.593934 3.93167 13.6893 -0.457409 -0.371356 -0.808004 166 178 176
0.622282 3.93351 13.6408 -0.897405 -0.216042 -0.384695 162 173 170
0.646153 3.89792 13.5781 -0.659829 0.069873 -0.74816 69 79 76
0.691489 3.89529 13.5431 -0.917324 0.0386589 -0.396259 183 194 190
0.715525 3.8876 13.4844 -0.808488 0.0805922 -0.582969 147 159 155
0.789494 3.88577 13.4639 -0.756797 -0.439588 -0.483757 98 107 105
1.34954 3.9876 13.7951 0.132808 -0.925478 -0.354758 107 109 107
1.48333 3.97162 13.791 -0.250207 -0.878883 -0.406153 160 160 155
1.52309 3.97853 13.7865 -0.305666 -0.810339 -0.499919 183 182 176
2.30736 3.91614 13.5051 0.354437 -0.781349 -0.513681 208 207 202
2.49423 3.94308 13.6052 0.460747 -0.673687 -0.577805 224 224 217
2.56096 3.93679 13.6447 0.225573 -0.886941 -0.403054 224 225 218
2.49471 3.92457 13.5347 -0.0403765 -0.967279 -0.250481 215 214 209
2.6353 3.92855 13.6014 -0.120223 -0.962987 -0.241251 204 204 199
2.89876 3.94482 13.6479 -0.0845478 -0.761588 -0.642523 205 207 202
2.94062 3.9208 13.5342 0.315101 -0.796483 -0.516068 206 208 203
4.36226 3.88292 13.288 -0.672052 -0.424227 -0.606941 204 204 199
4.39166 3.86519 13.2442 0.0825432 -0.778705 -0.621937 212 214 208
4.4389 3.85975 13.2207 -0.885011 -0.455381 0.0968698 199 200 195
4.44147 3.80972 13.0632 -0.681668 -0.706271 -0.191075 202 203 198
4.87145 3.88468 13.3576 -0.593235 -0.529786 -0.606135 206 207 202
4.91354 3.89438 13.324 -0.247983 -0.524599 -0.814432 195 197 192
5.0526 3.7204 12.7718 0.378079 -0.0733249 -0.922865 226 230 226
0.0248217 4.27045 14.7173 -0.697291 0.231774 -0.678282 115 126 123
0.096446 4.24149 14.5959 -0.758794 -0.353092 -0.547319 154 166 164
0.151065 4.21106 14.4443 -0.616968 0.276545 -0.736799 184 197 193
0.246584 4.16802 14.3112 -0.907332 -0.188123 -0.375976 162 166 162
0.264956 4.15394 14.2856 -0.878319 -0.185755 -0.440511 124 129 126
0.301525 4.13123 14.209 -0.882198 0.0310906 -0.46985 185 196 191
0.319273 4.10679 14.1917 -0.660465 0.00450778 -0.750844 187 198 194
0.385558 4.08903 14.1307 -0.838229 -0.250169 -0.484549 182 195 192
0.424208 4.05383 13.9194 -0.404543 0.555279 -0.726643 163 173 170
0.514871 4.03291 13.8498 -0.943565 0.0679525 -0.32414 185 198 193
0.563634 3.99668 13.7713 -0.819068 0.0737838 -0.568931 182 195 191
0.570789 3.95476 13.678 -0.152624 -0.37729 -0.913432 188 201 198
0.578781 3.97458 13.7332 -0.842551 -0.0776877 -0.532985 182 195 192
0.59002 3.97058 13.65 -0.818604 -0.549262 -0.167924 183 195 192
0.602801 3.96296 13.6286 -0.634436 -0.621039 -0.460219 186 197 194
0.629117 3.95332 13.6118 -0.848174 -0.451954 -0.276293 184 194 191
0.646248 3.93172 13.5806 -0.698837 0.0704457 -0.711804 166 176 173
0.700021 3.93268 13.5506 -0.801576 0.267648 -0.53464 182 194 191
0.742765 3.90862 13.4759 -0.633177 0.0714457 -0.770703 142 153 150
0.801771 3.91159 13.452 -0.885782 -0.315095 -0.340743 116 126 124
0.847234 3.86809 13.321 -0.781169 -0.423553 -0.45867 92 99 99
1.26726 3.99084 13.7264 0.230658 -0.898306 -0.373955 93 95 93
1.35064 3.99813 13.7156 0.177719 -0.921219 -0.346081 142 144 141
1.42328 4.00708 13.7264 0.15841 -0.909092 -0.385302 193 193 189
1.50524 3.99631 13.7512 0.117471 -0.807712 -0.577756 187 187 182
1.55379 4.00641 13.7149 0.0300514 -0.930904 -0.364026 211 211 205
1.60044 3.99735 13.7459 0.22149 -0.905758 -0.36131 218 217 211
2.25112 3.94035 13.4877 0.22026 -0.69203 -0.687445 208 208 202
2.31106 3.94582 13.4862 0.118631 -0.931528 -0.343777 210 210 204
2.35232 3.93268 13.4179 0.0940023 -0.842678 -0.530148 206 206 200
2.33966 3.93407 13.4237 -0.516543 -0.814282 -0.264817 203 203 197
2.49335 3.95283 13.5111 -0.0908281 -0.746401 -0.659269 207 207 202
2.59365 3.9505 13.467 -0.694423 -0.687931 -0.211015 196 197 192
2.63476 3.93843 13.5227 -0.0704482 -0.965428 -0.250968 199 199 194
2.68578 3.95018 13.5434 0.180324 -0.90828 -0.377506 209 210 204
4.38597 3.8888 13.2072 -0.637814 -0.534153 -0.554864 199 201 196
4.35294 3.86447 13.1037 -0.924736 -0.149762 -0.349906 199 200 195
4.36562 3.84627 13.0695 -0.877498 -0.384788 -0.286245 199 201 196
4.44662 3.84171 13.0506 -0.816283 -0.520603 -0.250311 201 203 197
4.86574 3.90952 13.2712 0.0255634 -0.770763 -0.636608 199 201 196
4.88789 3.7345 12.7082 0.184267 -0.607592 -0.772579 217 220 218
4.91657 3.75143 12.7076 0.200425 -0.671906 -0.713002 217 223 220
4.94228 3.74582 12.727 0.197162 -0.674629 -0.711339 221 226 223
4.97021 3.76095 12.7205 0.193198 -0.671321 -0.715544 176 183 181
5.0635 3.76983 12.7636 0.431539 -0.337215 -0.836696 147 156 154
5.89376 3.99506 13.522 -0.321989 -0.105401 -0.940858 121 133 136
0.0484693 4.30632 14.6454 -0.770628 -0.0734662 -0.633037 160 171 169
0.10895 4.26814 14.5578 -0.759795 -0.351238 -0.547123 173 184 182
0.137214 4.24074 14.4716 -0.488345 -0.171113 -0.85571 192 206 203
0.182739 4.24099 14.413 -0.481848 0.194764 -0.854336 176 189 186
0.304488 4.18094 14.2262 -0.64478 0.286485 -0.70865 188 198 195
0.304488 4.18094 14.2262 -0.64478 0.286485 -0.70865 188 198 195
0.345959 4.15849 14.1354 -0.396914 0.0455488 -0.916725 191 202 200
0.380815 4.12539 14.131 -0.889686 -0.118949 -0.440805 187 198 195
0.419477 4.09992 13.9618 -0.553754 0.436851 -0.708885 84 89 87
0.463788 4.06698 13.9166 -0.59911 0.39234 -0.697951 168 177 174
0.519284 4.06619 13.8491 -0.90391 0.130187 -0.407428 183 195 191
0.568149 4.03297 13.7729 -0.807246 0.144134 -0.572346 182 194 190
0.60406 3.98875 13.6127 -0.845728 -0.521709 -0.112091 184 196 193
0.643297 3.968 13.5663 -0.788372 -0.228686 -0.571115 187 199 195
0.677194 3.98078 13.5561 -0.906188 0.257653 -0.335318 181 195 190
0.694374 3.94584 13.4642 -0.81138 -0.287942 -0.508676 183 196 192
0.740032 3.93961 13.469 -0.820912 -0.224488 -0.525079 183 196 193
0.786389 3.93784 13.4319 -0.837367 -0.449256 -0.311424 180 192 189
0.828421 3.90622 13.3365 -0.251304 -0.882745 -0.396998 108 118 116
1.48403 4.01052 13.6952 -0.05388 -0.961225 -0.270449 206 206 202
2.19402 3.94378 13.3681 -0.1026 -0.922018 -0.373305 202 201 197
2.25311 3.93965 13.4195 0.104616 -0.713941 -0.692347 205 205 199
2.61936 3.97972 13.4351 0.143941 -0.918737 -0.367701 223 223 217
2.67848 3.95971 13.3941 -0.0260035 -0.936721 -0.34911 218 218 212
2.75642 3.94394 13.3917 -0.641881 -0.705735 -0.299878 198 198 193
2.9527 3.94913 13.3884 -0.402946 -0.785788 -0.469225 198 198 193
2.9189 3.93594 13.3642 -0.677288 -0.503221 -0.536703 200 200 195
2.94115 3.92544 13.3067 -0.49163 -0.808874 -0.322526 197 198 193
3.21049 3.91642 13.221 0.122203 -0.535541 -0.835621 209 209 201
4.18508 3.90955 13.1361 0.303278 -0.667382 -0.680164 221 221 215
4.32567 3.91624 13.2293 0.108988 -0.878453 -0.465233 201 202 197
4.35296 3.90105 13.1367 -0.415287 -0.670379 -0.614922 201 203 198
4.37879 3.88105 13.0644 -0.923505 -0.177242 -0.340183 195 197 192
4.45003 3.87349 13.0491 -0.872237 -0.172427 -0.457681 199 200 195
4.73273 3.77218 12.7138 0.151373 -0.775609 -0.612795 212 216 211
4.74609 3.77456 12.6782 0.0601069 -0.762916 -0.643698 210 214 211
4.78629 3.76784 12.6553 0.207684 -0.693357 -0.690017 215 220 217
4.82189 3.76468 12.6822 0.202897 -0.692626 -0.692172 219 223 220
4.86887 3.7699 12.6838 0.240685 -0.805938 -0.540865 210 215 213
4.94171 3.76757 12.7036 0.189325 -0.705054 -0.683414 170 176 174
5.0973 3.8089 12.7569 0.385196 -0.562903 -0.731276 115 126 125
0.0307727 4.34574 14.6603 -0.796213 -0.0871023 -0.598714 187 198 195
0.145512 4.31084 14.5476 -0.778114 0.0544309 -0.625761 182 195 193
0.19968 4.27928 14.4214 -0.544566 0.213326 -0.811135 160 173 170
0.242952 4.26039 14.3607 -0.842187 -0.519702 -0.143635 144 148 145
0.367859 4.15474 14.1098 -0.481157 -0.16613 -0.860749 185 195 192
0.404846 4.16578 14.0666 -0.951461 -0.062387 -0.301379 102 108 107
0.435944 4.12123 13.9493 -0.294643 0.00233003 -0.955605 82 86 84
0.472219 4.12924 13.943 -0.764915 0.197296 -0.613172 100 105 102
0.517622 4.0979 13.8421 -0.755952 0.142875 -0.638845 182 194 190
0.524845 4.07186 13.806 -0.681767 0.0799228 -0.727191 154 166 162
0.559211 4.0902 13.7987 -0.684988 0.102205 -0.72135 164 177 172
0.60253 4.05089 13.7033 -0.683485 0.530226 -0.501706 182 195 190
0.76445 3.95475 13.4501 -0.446604 -0.85846 -0.252174 182 195 192
0.759774 3.92874 13.3738 -0.649215 -0.586246 -0.484598 191 203 199
0.778944 3.93236 13.3523 -0.507069 -0.61526 -0.603603 194 206 203
0.869441 3.90904 13.3041 -0.289872 -0.859852 -0.420273 127 137 135
1.4711 4.02699 13.5645 -0.368699 -0.727922 -0.578092 201 201 196
2.20074 3.96247 13.311 0.105267 -0.836216 -0.538202 199 198 194
2.78041 3.94999 13.2905 -0.754829 -0.612166 -0.235554 202 202 197
2.81485 3.9421 13.2011 -0.325802 -0.669111 -0.66794 204 204 199
3.08806 3.92553 13.173 -0.345399 -0.83882 -0.42081 208 209 202
4.17553 3.93119 13.1066 0.339131 -0.585237 -0.736538 214 215 209
4.22879 3.94337 13.1228 0.30151 -0.669179 -0.679184 213 213 207
4.27151 3.92184 13.1366 -0.159872 -0.961166 -0.224948 198 199 193
4.37421 3.92411 13.0806 -0.656621 -0.412419 -0.631475 191 192 188
4.41435 3.89171 13.0204 -0.57368 -0.672796 -0.467158 194 195 191
4.6599 3.78292 12.6612 0.16154 -0.788826 -0.593008 215 219 215
